x,y,z,nx,ny,nz
-3.820149502054553392e-01,1.430452318493625474e-01,6.497979419209747309e-01,-5.379561024081628284e-01,-3.681774765178074116e-01,-7.583195748935916969e-01
-3.206839590018512598e-01,9.037135602947085622e-02,6.259293668478614903e-01,-9.212226172035219429e-01,-2.786372323108579629e-01,-2.714961920963869790e-01
-3.288202259691315743e-01,1.091308856014510942e-01,6.280330323718212870e-01,-4.788894695251267319e-01,5.293520531343129387e-02,-8.762777756033572896e-01
-3.429774611925962002e-01,1.205624715987941575e-01,6.874317331427612920e-01,-8.391249251436874168e-01,4.462117081525115436e-01,-3.110698820365267458e-01
-4.004703973253415095e-01,1.535585030544897867e-01,6.537358478720154409e-01,-4.277212075480962827e-01,-7.703993960199313484e-01,-4.727994704160776163e-01
-3.386169453147904740e-01,9.802358798723428968e-02,6.706490530869080313e-01,-6.794136631457213804e-01,3.721930137037429177e-03,-7.337460197963374675e-01
-3.443749238979306737e-01,8.027984635945170644e-02,7.002950230390315722e-01,-8.351074652478593929e-01,-5.474212481915856632e-01,-5.408787771452724241e-02
-3.371938826159171509e-01,1.042037160698673082e-01,6.704309527044277628e-01,-6.084866744869319444e-01,6.160222592546878845e-02,-7.911694715627378693e-01
-3.972043679848398234e-01,1.522871443633338762e-01,6.863475225672938107e-01,-5.278699345204487248e-01,-5.796484790215210570e-01,6.207744944804148846e-01
-3.793803385035019460e-01,1.324554599453112436e-01,6.551811109498959507e-01,-6.225977850456521079e-01,-6.297427518001164071e-01,-4.645385501887490109e-01
-3.157428997773253365e-01,9.234749726991861585e-02,6.502608352412458936e-01,4.201670437114137791e-01,8.028407237324148849e-01,-4.229733179476258265e-01
-4.047344865319073559e-01,1.510595215116044832e-01,6.782953453453134385e-01,-6.489114752678581954e-01,-6.740991912501249628e-01,3.528514951387046739e-01
-3.102000437944766320e-01,8.762109480838983777e-02,6.148077969441047008e-01,-4.888602132959760649e-01,-4.698762207248313727e-01,-7.350047816535359990e-01
-4.135732163257263005e-01,1.596689582744341140e-01,6.596761846234020510e-01,-6.138223531754860574e-01,-7.194356321867471094e-01,-3.250145994907985836e-01
-3.373112560636618573e-01,1.299119257931014848e-01,7.201013371944906538e-01,-7.120415707024755347e-01,6.243702844839948973e-01,3.211830466337332601e-01
-3.794295169167683501e-01,1.295609829578897310e-01,6.634812053432069812e-01,-5.864209603146102179e-01,-8.099702424011757662e-01,-7.659225043753531588e-03
-3.626003523409556117e-01,1.210390535746118379e-01,6.586935413949461804e-01,4.367711209253326010e-01,8.683757217739820344e-01,-2.348501517119886417e-01
-3.736626472064339954e-01,1.306539067630073381e-01,6.740505211407902264e-01,3.155267695694689012e-01,8.813721969341232754e-01,-3.516047612825691782e-01
-3.593604601474819082e-01,1.195006353412172151e-01,6.587417219070434982e-01,4.227055390235666676e-01,8.633488336518105877e-01,-2.755881323839147190e-01
-3.328333009465145875e-01,1.098540389541885209e-01,6.303658538581300430e-01,-6.336013668700474222e-01,-3.623169215466395116e-02,-7.728108257419904481e-01
-3.278502428012379233e-01,7.015785325980196385e-02,6.823714906749974718e-01,-4.731950803850901721e-01,-7.903567610428908763e-01,-3.891305772785513817e-01
-3.575925976905092729e-01,1.185201091323396516e-01,6.583483598969037676e-01,4.220771616075428279e-01,8.663376508569938794e-01,-2.670392187617866009e-01
-3.419037295706149893e-01,7.717579043821502782e-02,7.002728673367724088e-01,-7.538208985764343062e-01,-6.546605550476621849e-01,-5.633480748262443411e-02
-3.677329084467194642e-01,1.315614172820350480e-01,6.440513712414097647e-01,-5.660232627359119695e-01,-1.996192446319846325e-01,-7.998561265717408775e-01
-3.490791392901826384e-01,1.136924402419826341e-01,6.481571716687317686e-01,-5.017253279205161620e-01,-7.913225681887223750e-01,-3.493998975361262138e-01
-3.480551964193321912e-01,1.057310208309790445e-01,6.889898171727946163e-01,-9.536093049407629030e-01,1.051148577990893007e-01,-2.820995572493377734e-01
-3.492957594236850150e-01,1.192387828234931779e-01,6.692247372501622937e-01,4.381575083644409507e-01,7.937712353889783135e-01,-4.218355410973813058e-01
-3.215630399585915900e-01,9.577647052746027234e-02,6.525842852452977683e-01,4.308385321309279870e-01,7.929913655390856686e-01,-4.307468553706729764e-01
-3.566393332081392864e-01,1.240562425557872606e-01,6.696842738360809788e-01,3.768023464731458105e-01,7.981515792852763580e-01,-4.700787680556848258e-01
-3.350889746405730785e-01,1.085929164294502092e-01,6.623220827643442332e-01,4.515865451787223206e-01,7.961102342219146255e-01,-4.028375444030434238e-01
-3.906387763222765042e-01,1.418468891584973579e-01,6.819952709070173924e-01,-5.180313452587509415e-01,-6.863759151285173665e-01,5.104229897456609155e-01
-3.867076936991042380e-01,1.434450945758919960e-01,6.520838906115866696e-01,-5.382223810939794628e-01,-5.094468603161793618e-01,-6.714019399759835194e-01
-3.335108614678039540e-01,1.078705565635463548e-01,6.625548735059154648e-01,4.611628009544821993e-01,7.969163264739592689e-01,-3.901964115866091709e-01
-3.495300117051359789e-01,9.350822880904882672e-02,7.002469401611683963e-01,-9.813606425285253954e-01,-1.841865525979190232e-01,-5.483250074630652282e-02
-3.132603616653635292e-01,9.113213527988403562e-02,6.655420736192856346e-01,-2.715295153543680895e-01,1.318937979417946493e-01,-9.533497513273452295e-01
-3.429377174925561933e-01,8.016154976602404836e-02,7.137793701216437192e-01,-8.088215065047817953e-01,-5.547770828405453880e-01,1.950132276802518383e-01
-3.129258546990288936e-01,1.031326708946725679e-01,6.655914321231094499e-01,-2.482193228449691147e-01,-9.397451607049511768e-02,-9.641348236090745427e-01
-3.796746598138157069e-01,1.388959178332588029e-01,6.492888981186821784e-01,-5.296390568426776468e-01,-4.195276240081597940e-01,-7.372103106718375098e-01
-3.111023057884608201e-01,9.982465595047682050e-02,6.658604160487158197e-01,-3.730508048138888033e-01,-1.743772610672234338e-02,-9.276470356422945596e-01
-3.310012593443973916e-01,1.360450053219100786e-01,6.931028132927287144e-01,-5.435193155204688376e-01,7.980320908926125112e-01,-2.602528300743843781e-01
-4.044390807134071175e-01,1.524549007047316385e-01,6.627806825324407125e-01,-5.739449090798833808e-01,-7.671545825874050983e-01,-2.864630652569868374e-01
-3.383287641198589046e-01,8.769271537702291730e-02,7.307515185774255961e-01,-7.357551927449538232e-01,-3.162040100911350238e-01,5.988984223982571908e-01
-3.254719995481508144e-01,9.490432698320358518e-02,6.468492750537742086e-01,4.795820822254744931e-01,7.925777486748081246e-01,-3.765920056425140494e-01
-3.259018076868547276e-01,6.569211031118168953e-02,6.918863192333988277e-01,-4.464782667463779164e-01,-8.703219546026742526e-01,-2.078385254463926413e-01
-3.353432165402412957e-01,1.284902209047576738e-01,7.255700962897022599e-01,-6.933544477983447640e-01,5.610446149286250073e-01,4.522041019029386377e-01
-3.143760436078057441e-01,8.756849929731100324e-02,6.653774948247219712e-01,-2.647278381981093553e-01,7.465896495050644566e-02,-9.614287340388129044e-01
-3.423138833061020181e-01,1.197265872363349748e-01,6.843366883979196125e-01,-8.275080255908134896e-01,4.393654432399568543e-01,-3.495546808002282235e-01
-3.326719520733101843e-01,1.308322587613365007e-01,6.840842434389833304e-01,-5.280346463405873880e-01,7.244920956822410441e-01,-4.430469676658732592e-01
-3.469579117360919729e-01,1.180038627489508052e-01,7.094988347711407295e-01,-9.310308719973765523e-01,3.522265589825169241e-01,9.548804393818194347e-02
-3.459208058995778545e-01,9.245529475352176618e-02,6.838420726040141950e-01,-9.062913705656161500e-01,-2.032017020086162584e-01,-3.706008903646866859e-01
-4.150068931853931331e-01,1.616473747876717992e-01,6.585269631498388287e-01,-6.095429026141658824e-01,-7.263068900726239452e-01,-3.177038736083193093e-01
-3.145834713790485182e-01,8.457543157081812146e-02,6.653468970239495572e-01,-2.635616964857986355e-01,-9.818481310843202303e-03,-9.645925717992425152e-01
-3.376886458317338580e-01,1.251519919935962510e-01,6.825394369213770851e-01,-6.875658106855074836e-01,5.978878411102213075e-01,-4.120477950783617005e-01
-3.490554356062283148e-01,1.116073943306109262e-01,7.063316586471293235e-01,-9.763227604080337851e-01,2.130574213382520343e-01,3.742195507896128176e-02
-4.058248083124508798e-01,1.584452479088406529e-01,6.523748159934329438e-01,-5.209455799996473013e-01,-6.950388390473665190e-01,-4.955166141458023921e-01
-3.354872667458792534e-01,1.191447397325536561e-01,6.733196326893354788e-01,-6.347001096673168252e-01,4.780795007068184277e-01,-6.071208790613406014e-01
-3.968551540359882557e-01,1.510671838128667122e-01,6.544735768529706954e-01,-5.468840860439803109e-01,-6.780890602707229098e-01,-4.910326086656648936e-01
-3.330235661557824911e-01,8.261559173505514386e-02,6.721069454358747919e-01,-5.430963780141737640e-01,-5.187136127830593857e-01,-6.602897183066172015e-01
-3.490005296069989549e-01,1.071702578667899919e-01,7.130058029339129133e-01,-9.729027134565489954e-01,1.129316312202908457e-01,2.017591554770396811e-01
-3.178762146684873668e-01,6.273772675584762815e-02,6.917582860601529937e-01,-3.299674227007045602e-01,-9.143920440780520797e-01,-2.345393137258995897e-01
-3.415546450573342385e-01,1.087567025427123857e-01,6.756860085508307190e-01,-8.098987256991924122e-01,1.333419897607908688e-01,-5.712127168380073394e-01
-3.875632855311044178e-01,1.416128001945649029e-01,6.552791112125438966e-01,-6.275011141258313163e-01,-6.311609077310352811e-01,-4.559366845549674419e-01
-3.641835226696868988e-01,1.215495803956291032e-01,6.558961600124650904e-01,-5.321334981198366787e-01,-8.466191681346477704e-01,-8.362076640570172831e-03
-3.825900999525249091e-01,1.341550215089421516e-01,6.571817634566575750e-01,-6.841567778677266620e-01,-6.313776099840344713e-01,-3.650915185381586880e-01
-3.226414320045329909e-01,9.360716041218250516e-02,6.287549260836095000e-01,-8.624258534457593939e-01,-3.783164014177679002e-01,-3.363009778853815468e-01
-3.269340906761620258e-01,9.353448977734654668e-02,6.388221308376819119e-01,-7.807913764232781162e-01,-6.199884652323719436e-01,-7.732483095261641348e-02
-3.864349642368275495e-01,1.405226692188879800e-01,6.553388950894200038e-01,-6.732866933073573534e-01,-5.900067912229046696e-01,-4.456198098447783362e-01
-3.744986427208407687e-01,1.269483837861916375e-01,6.583621675520705541e-01,-4.894102250129080400e-01,-8.533474105320947301e-01,-1.796547483118197952e-01
-3.501720554609543123e-01,1.028360185776254487e-01,7.061500106502296426e-01,-9.985376845723495931e-01,3.239142979951104701e-02,4.328149448013585837e-02
-3.492057826004578702e-01,9.222385372075944665e-02,7.062868042038097371e-01,-9.711174047837114465e-01,-2.223469141951228134e-01,8.656116839585659140e-02
-3.342604658939363760e-01,1.267006491873761964e-01,6.799434081809948571e-01,-5.748950065858782210e-01,6.567395702968066296e-01,-4.880459693604578542e-01
-4.106446250084981320e-01,1.563964197043677951e-01,6.768714977440168923e-01,-6.310711162785520578e-01,-7.318964095178434048e-01,2.570542587350605479e-01
-3.368309429622915463e-01,7.317795572843163732e-02,7.116565015359722635e-01,-6.362741665109642453e-01,-7.606181007367001090e-01,1.289003097842398027e-01
-3.473354593957362346e-01,1.150056907538673234e-01,6.614196255018920390e-01,4.209829187654384741e-01,8.351623934974586883e-01,-3.539451350072891911e-01
-3.488749133766518851e-01,9.044409418519347432e-02,7.052390750687803633e-01,-9.626992845727370129e-01,-2.607283172735901378e-01,7.232449139000064753e-02
-3.462843656276457516e-01,1.144988137860199762e-01,6.613506340607535616e-01,4.139556387433084295e-01,8.400775310339949620e-01,-3.505858967563392214e-01
-3.418452744182952641e-01,8.014771357219427350e-02,7.174993235664202107e-01,-7.884392169053466848e-01,-5.450060164202455981e-01,2.851877334518772011e-01
-3.357315067740640480e-01,1.094493215535184694e-01,6.636354963949845365e-01,4.620033507254641125e-01,8.104017730466623881e-01,-3.602802661280097851e-01
-3.988533417894321587e-01,1.526022107903262925e-01,6.540437377750765169e-01,-4.756143646961340510e-01,-7.515112858493004921e-01,-4.571889798932424198e-01
-3.400643273012882162e-01,1.041058247540494752e-01,6.731829889943925505e-01,-7.510124634671491162e-01,9.017382571286926274e-02,-6.541016441450894225e-01
-3.134637029235245453e-01,9.510787125717609647e-02,6.665162587143333983e-01,-3.039027882340498699e-01,8.360608244479661444e-02,-9.490274591821904471e-01
-4.033566479978695218e-01,1.596568116549751115e-01,6.493008468205102579e-01,-3.884336837671054643e-01,-5.828683327186584551e-01,-7.137112721744610644e-01
-3.459878858635460630e-01,1.206390272457501245e-01,7.003131237197924852e-01,-9.031134444548246654e-01,4.222511311267803658e-01,-7.803902041348857732e-02
-3.322764635449477200e-01,1.222762243453761888e-01,6.731915829752644909e-01,-5.528480890982988560e-01,5.693801441692438736e-01,-6.084120657960118139e-01
-3.475399113052606292e-01,9.341359153430670026e-02,7.168657430549392195e-01,-9.423413426668383330e-01,-2.015499569128346713e-01,2.671524073806832433e-01
-3.694851238870814347e-01,1.282933672521612001e-01,6.467934645285021711e-01,-6.638767783933313682e-01,-5.921866715855867991e-01,-4.567084070897706738e-01
-3.345635957821949669e-01,9.510174781124799970e-02,7.369809928250473652e-01,-6.769692994795289964e-01,-1.705643665890446414e-01,7.159751143805723750e-01
-3.262216693322254613e-01,7.433942440937965634e-02,6.742819905987672557e-01,-3.984828522499032633e-01,-7.066651964202533831e-01,-5.846671844999568046e-01
-3.926515726960830843e-01,1.447479074452421022e-01,6.572984028923781752e-01,-5.677839270121106674e-01,-7.163069498299046156e-01,-4.056177583046437496e-01
-3.168088094475113858e-01,8.445189535658567670e-02,6.660129219613613039e-01,-2.178758042905522552e-01,-4.183773580090244942e-02,-9.750793494725435995e-01
-4.179121847431400694e-01,1.618454793099662614e-01,6.640644760675639136e-01,-6.654784274453109383e-01,-7.256739445091764384e-01,-1.747449251492261268e-01
-3.499956127646856596e-01,1.060690099005004716e-01,7.053649229945813115e-01,-9.944555884114405497e-01,1.021470380991250093e-01,2.498129870185833434e-02
-3.437822964871987685e-01,7.940830491523950818e-02,7.053445204132902102e-01,-8.064165754763732430e-01,-5.888576549473568678e-01,5.421225882453537676e-02
-3.196705636328882050e-01,9.381254870485275510e-02,6.201442868041049383e-01,-8.213098210504066188e-01,-1.189282174517156676e-01,-5.579482565076321343e-01
-3.970081064724430009e-01,1.495142640177509197e-01,6.568251959401415485e-01,-6.314762570459451219e-01,-6.060958115346772868e-01,-4.836172081588541172e-01
-4.106563971292734316e-01,1.611470382913053889e-01,6.523102345975153593e-01,-4.392161214313974882e-01,-7.801877976066156073e-01,-4.454168824152250905e-01
-3.279336048431555350e-01,7.148863902356236699e-02,7.256733011267821887e-01,-5.008865022971017433e-01,-7.559378424541717267e-01,4.215100119360232211e-01
-3.922622514794408821e-01,1.452190132443210435e-01,6.558166566910665907e-01,-5.717138978273909045e-01,-6.849576350153153692e-01,-4.516373072114810427e-01
-3.270841732536173829e-01,6.569069670903257552e-02,6.950237342621996550e-01,-5.052886370323476095e-01,-8.534543466817796631e-01,-1.276678166805131354e-01
-3.344480685879045456e-01,7.467467073391884091e-02,7.227401750772799449e-01,-6.038194844485367252e-01,-7.007385486202806213e-01,3.799572563826696392e-01
-3.394138658555150290e-01,1.069523805383941484e-01,6.468937536424630430e-01,-7.261836067998606037e-01,-6.593340360230495190e-01,-1.947716564510904858e-01
-3.985800481580176191e-01,1.447899641100665880e-01,6.737592722113171506e-01,-6.042524619112165096e-01,-7.945804611792732786e-01,5.933677600246887313e-02
-3.603737256988450155e-01,1.206242294613620591e-01,6.603235921393050267e-01,4.018272206609485031e-01,8.411547018103209261e-01,-3.619304523776458726e-01
-3.315249401352906022e-01,7.514648526947706464e-02,6.781050565328455848e-01,-5.681713546724243002e-01,-6.673869862143833043e-01,-4.814311190205559088e-01
-3.433930222291538548e-01,1.176819486175081086e-01,7.227801927231213286e-01,-8.585202530581813596e-01,3.266578658141540137e-01,3.952690397573007108e-01
-3.591877533648817344e-01,1.199807526175281358e-01,6.600713576886984013e-01,4.014862743020319868e-01,8.429475570862954292e-01,-3.581175610736233028e-01
-3.463048585639689203e-01,1.130563674126169038e-01,7.189796291258734318e-01,-9.189176244821128936e-01,2.147851589947670781e-01,3.308439736367327355e-01
-3.408284320838491643e-01,1.010299456868669343e-01,6.735062698823277572e-01,-7.808473378602620585e-01,7.435650319484939097e-02,-6.202810213033894682e-01
-3.386265444450583528e-01,1.313961000744602037e-01,7.113468891310550379e-01,-7.279999500549132474e-01,6.737414039400096977e-01,1.268408188911935575e-01
-3.939573997874216138e-01,1.418594551835557771e-01,6.660298875202497193e-01,-6.459688311585909393e-01,-7.313102063773062600e-01,-2.188827339467084576e-01
-3.419544369260749672e-01,1.131568906460306001e-01,6.636103675981364081e-01,4.448164967009197723e-01,8.238549133730530549e-01,-3.512853056616509484e-01
-3.203921802393914775e-01,9.490481592755525830e-02,6.517368342182365826e-01,3.859166913658569897e-01,8.278019205075920484e-01,-4.072005497653117256e-01
-3.382000470113692980e-01,1.109624320272704912e-01,6.641919501980886320e-01,4.687589123483573150e-01,7.942539424510455248e-01,-3.865562792077710808e-01
-3.733065884741367801e-01,1.307699905339977098e-01,6.496654623013351504e-01,-6.549348755963915192e-01,-5.973068498159718187e-01,-4.629091011099903952e-01
-3.254648852883855192e-01,9.182410577973733334e-02,6.380487437467199374e-01,-7.484785997718041983e-01,-6.631544978353723918e-01,2.428514845454788750e-03
-3.325440777415467064e-01,1.084907056395313096e-01,6.650673964788578196e-01,-6.324947042060511393e-01,-7.544563909004309288e-01,1.753453831179941913e-01
-3.178470450394224600e-01,8.427527189295500043e-02,6.348182462321517727e-01,-6.045194514215487258e-01,-7.606399695520354998e-01,2.366074165635311533e-01
-3.354811592165422018e-01,7.597060237120598081e-02,6.825354476708255236e-01,-6.408146555738285510e-01,-6.718838066019332533e-01,-3.713875706427067214e-01
-3.368729303524765628e-01,1.060904070366522622e-01,6.420447285682480132e-01,-6.823658976478786942e-01,-6.392290214569205098e-01,-3.546308501166142158e-01
-3.309188326334861485e-01,1.072877162699004960e-01,6.648427593109440537e-01,-5.265571947415668141e-01,-8.485124455294982271e-01,5.257518851551531980e-02
-3.187764050325300746e-01,8.041819851886242154e-02,6.667057175119103229e-01,-2.109740491725290434e-01,-2.467676165103104280e-01,-9.458306899321714534e-01
-3.316264078759722511e-01,1.106412225965759111e-01,6.297979415790649904e-01,-5.789940792966404848e-01,5.095564116038064917e-03,-8.153158230807097118e-01
-3.374376634038878664e-01,8.733008444349973920e-02,6.725741541562518799e-01,-6.672831521731934501e-01,-3.753915050577026347e-01,-6.432840840222300294e-01
-3.451896428002141359e-01,1.107663401965400529e-01,6.544692976320478639e-01,-5.128169402937290400e-01,-8.332141160643180555e-01,2.068163981383852323e-01
-3.386147373314549180e-01,1.114451123033067537e-01,6.725164644868897312e-01,-7.701241563627065911e-01,1.642460076153268167e-01,-6.163862691276109640e-01
-4.031619958148376925e-01,1.525540958721539331e-01,6.598684172512825352e-01,-5.147871946494113615e-01,-7.950505553800878422e-01,-3.207627762300401808e-01
-3.336805954862185342e-01,7.133591399568825486e-02,6.905456894405022084e-01,-6.272681395970131080e-01,-7.554037507478971181e-01,-1.894725689974966210e-01
-3.629903702546768418e-01,1.218374354396364045e-01,6.603518441165319164e-01,3.958316957298170236e-01,8.566884667662288955e-01,-3.307599425042055952e-01
-4.137370997675403061e-01,1.626826593283912659e-01,6.532697002176963696e-01,-5.650062665834076903e-01,-7.364083577824934723e-01,-3.721164459004334679e-01
-3.064146631879373084e-01,9.113004632334917310e-02,6.634792370159847685e-01,-3.643408146678470128e-01,7.183379779361466488e-02,-9.284910749499509786e-01
-3.996603961720254228e-01,1.526297518615028215e-01,6.550459287638573658e-01,-4.611236136869834024e-01,-7.868140065648944192e-01,-4.102300963770894593e-01
-3.175988628199533093e-01,7.899412760551779988e-02,6.668863854494300192e-01,-1.864990549235040485e-01,-3.684460904324801667e-01,-9.107500101332199893e-01
-3.397741790491227709e-01,7.768912302370875600e-02,6.884094394511535153e-01,-7.206042461930672882e-01,-6.425831223158973149e-01,-2.604159197961483097e-01
-3.985291094306237514e-01,1.453007341097561078e-01,6.674411979043166632e-01,-6.260934485968882024e-01,-7.621044006197749132e-01,-1.649359760029001920e-01
-3.349319657825353125e-01,8.624874442856519940e-02,6.708248877581368674e-01,-5.560301298238208290e-01,-4.018278644310100400e-01,-7.275746436585862620e-01
-3.497672907717446211e-01,9.973075814585893872e-02,6.949403409971512957e-01,-9.863359039111476712e-01,-2.868132747270314697e-02,-1.622309036841709795e-01
-3.363717927006645847e-01,1.282730104033252549e-01,7.242526040756642747e-01,-6.992111596589213329e-01,5.693770466020787735e-01,4.323349777789446957e-01
-3.533327088210307387e-01,1.184533016387721849e-01,6.627353001456295356e-01,4.084612861379457449e-01,8.337613800250104346e-01,-3.714853145217522634e-01
-3.188129655839561094e-01,6.570160072104766491e-02,6.835681382221258096e-01,-2.927399135000137709e-01,-8.839855662467095421e-01,-3.645172996052291059e-01
-3.456559460085006363e-01,1.176981107894679857e-01,7.168700187240243382e-01,-9.028544947213716920e-01,3.270093753906096468e-01,2.791390867794404929e-01
-3.487066987910051319e-01,1.161391988028189493e-01,6.627886851633244536e-01,4.229588838152394392e-01,8.379193316592331575e-01,-3.449593834547928228e-01
-3.124369926549135923e-01,8.550751410465448621e-02,6.177752166466233819e-01,-4.716080416387910534e-01,-5.757393342539788295e-01,-6.679147206450906094e-01
-3.454511767877155304e-01,1.195385234061977220e-01,7.150753577761190805e-01,-8.950369390634435041e-01,3.836352069632098516e-01,2.274486880380646725e-01
-3.431194107134349913e-01,7.851875774603098157e-02,7.048372455190576868e-01,-7.818221913541438806e-01,-6.220759797886620257e-01,4.213711518578738130e-02
-3.339162837838787756e-01,8.631177447777002576e-02,6.700551102159435501e-01,-4.948185560896842250e-01,-3.837419868672881096e-01,-7.796772948242536305e-01
-3.331557764449446513e-01,1.039291472737094713e-01,6.334643423263704998e-01,-7.435397702794878105e-01,-6.558644070769324985e-01,-1.303475720615860090e-01
-3.458555495977246319e-01,1.148095262799760652e-01,6.630047235491904889e-01,4.144784715230626637e-01,8.412631165631417884e-01,-3.471080024349419424e-01
-3.324091090684445637e-01,7.904324974905460599e-02,7.309700539774133254e-01,-5.920217464557827602e-01,-5.558845387285803463e-01,5.835260331175967652e-01
-3.331618402680938118e-01,8.729745090048521283e-02,6.692357334916274603e-01,-3.882445310019275730e-01,-2.916877823239777956e-01,-8.741764248651487934e-01
-3.388849524024507565e-01,1.117943284664651704e-01,6.650161905445172161e-01,4.587241593087713620e-01,7.919180585567475728e-01,-4.030358969101543454e-01
-3.597214107513907466e-01,1.256159890074631524e-01,6.702094997382890273e-01,3.294286545743105865e-01,8.219414788733228061e-01,-4.646385335428979690e-01
-3.163907195800074734e-01,8.304755032103269818e-02,6.347382243708549199e-01,-5.661559447360851038e-01,-7.779232498045856037e-01,2.725855162209895877e-01
-3.312399425845781731e-01,1.311061272029182267e-01,6.829523739759433276e-01,-5.064083596991059144e-01,7.295212526274780229e-01,-4.597274357613392315e-01
-3.211021216252383237e-01,9.034700706641882184e-02,6.273663612271154211e-01,-9.107131488762186811e-01,-2.839593755436650158e-01,-2.999477179523361570e-01
-3.230555379440792629e-01,8.652396235655754331e-02,6.670257695935979392e-01,-2.039425770825605833e-01,-7.892874852678694042e-02,-9.757959202153486666e-01
-3.225895939256971379e-01,8.315835535567014936e-02,6.670986371943652404e-01,-2.516825923847818003e-01,-1.836338423073496651e-01,-9.502286486156451550e-01
-3.281145820383506995e-01,7.051753127988188985e-02,7.236424555325596808e-01,-5.117251353119840473e-01,-7.749783306129106597e-01,3.708719091146667757e-01
-3.259469895393921068e-01,7.338684998493402722e-02,6.753029051976441322e-01,-3.899793216326170597e-01,-7.334690121503499860e-01,-5.567219565583466645e-01
-3.216336732469943782e-01,8.029118195216863874e-02,6.672481288358853568e-01,-2.451702649817762703e-01,-3.318783085538475897e-01,-9.109052253007459132e-01
-3.607705772035932901e-01,1.254383550588390184e-01,6.413176685047222714e-01,-4.661341004626307072e-01,-4.762519039173095381e-01,-7.455891123139017918e-01
-3.371002325524353749e-01,1.313231328133842302e-01,7.173029187580255428e-01,-6.947896046134016679e-01,6.724067471177628263e-01,2.552186743787804302e-01
-3.784859144136069053e-01,1.312685647610923600e-01,6.555147586916052482e-01,-6.228525152509181151e-01,-6.321056289192126254e-01,-4.609742054977170600e-01
-3.429867752259444513e-01,1.099518334124585939e-01,6.781775464824130184e-01,-8.535956656958347821e-01,1.946509985749884097e-01,-4.832032990978479825e-01
-3.459918377578520277e-01,1.011905988309881044e-01,6.823747036838276880e-01,-9.090957993334426446e-01,1.540162579264403760e-02,-4.163023150995346922e-01
-3.379946652224962711e-01,8.606255628209322217e-02,6.740334463009444166e-01,-6.914112873386519809e-01,-4.253670061523200929e-01,-5.839634764415666535e-01
-4.058760606891334000e-01,1.568677594516774965e-01,6.553544102595467713e-01,-5.784127106081228265e-01,-6.954424745159378807e-01,-4.263783541012761691e-01
-3.251741594405681557e-01,6.569304124085459384e-02,6.905858100483341921e-01,-4.164724336161629292e-01,-8.770589610613929166e-01,-2.394123866046634908e-01
-3.359340335049981197e-01,1.334024631981155229e-01,7.143231003750880603e-01,-6.637673326387898420e-01,7.242812434977885516e-01,1.866269231351229962e-01
-3.459483807148326928e-01,1.119382587824365310e-01,6.478928410014597183e-01,-5.035413532778577617e-01,-7.910172907342725157e-01,-3.474733821438920067e-01
-3.915914893612059688e-01,1.439202503864070726e-01,6.574688946292679415e-01,-5.764190801524665675e-01,-7.217217377149163227e-01,-3.832215773491180477e-01
-3.473184415504940725e-01,1.177052661408087564e-01,7.017848509512394362e-01,-9.364777264336088258e-01,3.489007252823917993e-01,-3.574565415767299442e-02
-3.906120902511346360e-01,1.506801100079318834e-01,6.897540021814552169e-01,4.318928663752328867e-01,6.290379338984043445e-01,-6.463589016104069884e-01
-3.141217502271422823e-01,8.907719437073677304e-02,6.654150074957821959e-01,-2.624566271810972462e-01,1.116351056191240004e-01,-9.584644605002992090e-01
-3.752302243072118126e-01,1.302740910653373552e-01,6.728935629010257546e-01,3.219972112019751087e-01,8.802368045788198092e-01,-3.485698837292455776e-01
-3.349872116430642754e-01,1.114697979394695115e-01,6.689286745688549640e-01,-8.542481716702572392e-01,-4.948187749158118320e-01,-1.594190741060738103e-01
-3.769035437439450242e-01,1.290063747767707658e-01,6.684370036819902161e-01,4.187348231085064043e-01,8.506097930241457439e-01,-3.180002011441309118e-01
-3.834242723107470496e-01,1.344265455011627031e-01,6.584161801712128392e-01,-6.971966006320842180e-01,-6.402685286969447276e-01,-3.224486179646546824e-01
-3.743489417480534431e-01,1.265985827524563623e-01,6.602420869134285608e-01,-4.468269597938316351e-01,-8.913526745109910943e-01,-7.639422519735926398e-02
-3.711570506885522036e-01,1.252325197313329530e-01,6.607556930098420489e-01,-3.594041091191446102e-01,-9.323984682691706105e-01,3.823326715804374609e-02
-3.629157641326463124e-01,1.227262207869788957e-01,6.620815328889433360e-01,3.573826597825519591e-01,8.516347599860063511e-01,-3.834004043690175112e-01
-3.618153178389704183e-01,1.220834107701083970e-01,6.618265751494433191e-01,3.783639392810004831e-01,8.410498915199262626e-01,-3.866210152411318490e-01
-3.485879659909880135e-01,9.265568681102007154e-02,6.938792207941422152e-01,-9.634524141819408305e-01,-2.081230409443797225e-01,-1.686542185510159220e-01
-3.883354476848372427e-01,1.368621365730068040e-01,6.650616566886156100e-01,-6.497977478959872100e-01,-7.424772658687279758e-01,-1.627587063643643195e-01
-3.343475443557159532e-01,7.849772444656499815e-02,6.772386220901239762e-01,-6.092523539409828714e-01,-6.077471281153309368e-01,-5.093672520735298415e-01
-3.501626101438405358e-01,1.176947924871346307e-01,6.643560312501055609e-01,4.256492718749043669e-01,8.348008793013647066e-01,-3.491850358621228501e-01
-3.425447441608330812e-01,1.269358814015091319e-01,7.019650994828170454e-01,-8.267277249175944975e-01,5.600713096991765116e-01,-5.330475498890682035e-02
-3.448520277694608893e-01,1.147578807179233384e-01,6.643010786949581359e-01,4.096229940894554611e-01,8.392296197431039495e-01,-3.576347970472603111e-01
-3.439671468374159158e-01,8.633486103307216886e-02,7.207054943657383861e-01,-8.471856622082433175e-01,-3.794352146750433752e-01,3.718943016682078051e-01
-3.350100784975554302e-01,1.105054543916484666e-01,6.660978530894976490e-01,5.626528093760835292e-01,7.719709690114270328e-01,-2.957746424302786781e-01
-3.975123766731215591e-01,1.551228390638133836e-01,6.500939124197055996e-01,-2.953948595407271394e-01,-6.237342571074863118e-01,-7.236694365989807531e-01
-3.420138490921307839e-01,1.238733792309066606e-01,7.190139089019429441e-01,-8.178242422517405519e-01,4.814540079722600674e-01,3.152230115217055095e-01
-4.001317315082089654e-01,1.525615753237506700e-01,6.838258981756549781e-01,-5.764610336320642459e-01,-5.638534222081210689e-01,5.914067931365368791e-01
-3.384780333585235557e-01,1.056749440361162973e-01,6.716071420385757440e-01,-6.975850491277645338e-01,5.584727537108004347e-02,-7.143221829588110028e-01
-3.253546607308228644e-01,8.637959990691154721e-02,6.676363828905249598e-01,-2.735918354113574535e-01,-1.637617603312091774e-01,-9.478025076193185017e-01
-3.251543844194237365e-01,8.446679651777952436e-02,6.676682941691090001e-01,-3.115227440300737394e-01,-1.744623137042633498e-01,-9.340859066750383244e-01
-3.351916984308080383e-01,1.047902797911664796e-01,6.552697789725862032e-01,4.416518471531669654e-01,8.045059418893308889e-01,-3.971320125234884535e-01
-4.135028930074315379e-01,1.644832381610175920e-01,6.500462819674842629e-01,-5.287511851084345516e-01,-5.835628485356029183e-01,-6.163412902405930316e-01
-3.250192907298974365e-01,8.302990548353403333e-02,6.676898209070063483e-01,-3.241224493321154809e-01,-1.986785894605302971e-01,-9.249169994809935957e-01
-3.277653150184369757e-01,1.070681898796658621e-01,6.659684439508785081e-01,-6.218243636285700759e-01,-7.814247058149174086e-01,5.205660323141872436e-02
-3.917627368341500271e-01,1.409099736813804460e-01,6.632544416260952591e-01,-6.550153563973092341e-01,-6.745378768386991464e-01,-3.405195083892345043e-01
-4.014768423779162543e-01,1.566970089082023454e-01,6.502987793986261256e-01,-3.856592064894263094e-01,-5.954993547003387677e-01,-7.047322151011873315e-01
-3.420536049757997854e-01,1.222551615540286851e-01,6.874914798010597350e-01,-8.191244715637920892e-01,4.765985461871701800e-01,-3.192004477716380295e-01
-3.231349833416142792e-01,7.925702832679956678e-02,6.679900767804253237e-01,-3.036837986936961609e-01,-4.162702996699206848e-01,-8.570269470814094737e-01
-3.500252831641356144e-01,1.038430781666538072e-01,7.080987256576771749e-01,-9.948922958831737384e-01,4.849020109556548275e-02,8.853259281202004172e-02
-3.339088449349412180e-01,1.354988088462850404e-01,6.988580793663897728e-01,-5.955044314345186995e-01,7.930368276383568116e-01,-1.283240513354443613e-01
-3.401188443742983458e-01,1.057120800581178022e-01,6.734045889694383336e-01,-7.598509472479657578e-01,8.011154762716463096e-02,-6.451423702588054976e-01
-3.340818672322331540e-01,7.133002081926673177e-02,6.918828819631934746e-01,-6.284521176976647361e-01,-7.585267373152958514e-01,-1.722937159014587549e-01
-3.387960105888357942e-01,9.047063641290872815e-02,7.315366705378547607e-01,-7.384875930247202236e-01,-2.621517790015137628e-01,6.212185764406088495e-01
-4.165626986702934409e-01,1.641716593508025790e-01,6.553449727213704890e-01,-6.059009197749953834e-01,-7.232683172863174637e-01,-3.313110572040014468e-01
-3.458124908561238664e-01,8.342435784678667310e-02,7.084597156002526708e-01,-8.861244543463826506e-01,-4.493541434703857695e-01,1.134209202718871184e-01
-4.154453416647100328e-01,1.637420519197087532e-01,6.542190699696960321e-01,-5.993117762349725597e-01,-7.205133813255288899e-01,-3.488350071264850749e-01
-3.386058513151898874e-01,1.012637616698047471e-01,6.711181695983912121e-01,-6.818576556019658730e-01,9.876563047238666460e-02,-7.247865118325415024e-01
-3.611841181531554867e-01,1.208965755009751425e-01,6.487144764053984769e-01,-5.439939307784656952e-01,-8.088613641006464627e-01,-2.231902707141046605e-01
-3.292391304980889499e-01,9.688145868520944837e-02,6.388931975945837394e-01,-8.437477391798234860e-01,-4.970798797563837357e-01,-2.024878904288245351e-01
-3.354331019862506480e-01,1.335236245397826982e-01,7.154390264650660747e-01,-6.613897030548467892e-01,7.213198353253229556e-01,2.055756694243516258e-01
-3.175711224931954124e-01,9.349113531451433423e-02,6.177394880305586700e-01,-6.618412919064807776e-01,-4.361625892018240573e-03,-7.496312964031973669e-01
-3.460535316904748138e-01,8.340200377668946508e-02,7.063036744206383499e-01,-8.882730757623856777e-01,-4.516421264534299373e-01,8.360820825884937579e-02
-4.150068198358162208e-01,1.643366535757085634e-01,6.523520612902796723e-01,-6.003934584131384034e-01,-6.636895321829425765e-01,-4.461433625702594941e-01
-3.984161121324867327e-01,1.507967022810479951e-01,6.572507725950332835e-01,-5.805809095343036352e-01,-6.727619456799215358e-01,-4.586035018720276968e-01
-3.283025119556846061e-01,1.018526220325729204e-01,6.575691662266808235e-01,4.371196185569217185e-01,8.329301033090679152e-01,-3.393433100477991626e-01
-3.347745876366362561e-01,1.019693763558170152e-01,6.454898315900152728e-01,-6.953096179657622944e-01,-7.076512964790082627e-01,-1.255952935260090109e-01
-3.195016677294129082e-01,8.464454781304805997e-02,6.288819791510121826e-01,-8.118324012785110844e-01,-5.823665184648951776e-01,-4.215910821451413631e-02
-3.890309091579720047e-01,1.408358404044410539e-01,6.590542307529380084e-01,-6.554598555556415684e-01,-6.406104071562044311e-01,-3.999883548281618073e-01
-3.943563736287233334e-01,1.457627696548005891e-01,6.577905293333927705e-01,-5.679236771305645748e-01,-7.025099963428769190e-01,-4.288850685123339890e-01
-3.322298171788991006e-01,6.948688711080461267e-02,7.101534973387095828e-01,-5.882412921043511655e-01,-8.035537538144851277e-01,9.095904019971347287e-02
-3.327187984160768219e-01,6.947658598463743451e-02,7.056674676969419968e-01,-5.854651823956552592e-01,-8.097075884786978373e-01,4.005173357588841243e-02
-4.113967131851169468e-01,1.561126188937923265e-01,6.708212935049687742e-01,-6.116856199726453669e-01,-7.899240536018826697e-01,4.313573761801713091e-02
-3.975168627059847970e-01,1.506351718310615373e-01,6.847249290712174030e-01,-5.194840975069248135e-01,-5.907140236287340418e-01,6.174084666780716990e-01
-4.175843019746146578e-01,1.619517469410201860e-01,6.630799128746979187e-01,-6.592483981489734024e-01,-7.182720957066384138e-01,-2.224336891462410648e-01
-3.999061946102658860e-01,1.534758298599820381e-01,6.849648946899802304e-01,-5.624097050737913994e-01,-5.949078739173233599e-01,5.742646995854621128e-01
-3.378075307515872039e-01,7.498010356019943479e-02,6.905180300832519658e-01,-6.709052472283300039e-01,-7.090938323890134676e-01,-2.169610244015160727e-01
-3.597969483634869681e-01,1.220628974590799165e-01,6.634505657567171255e-01,3.763416823754172080e-01,8.279859406500192920e-01,-4.156996754782751324e-01
-3.577625977250413203e-01,1.229309478406211686e-01,6.668487209373114011e-01,3.869147250172289554e-01,7.993250999925439748e-01,-4.597568706248462145e-01
-4.045041692941838685e-01,1.498633140329620195e-01,6.705450145178978305e-01,-6.880951590247269545e-01,-7.228043519993886390e-01,-6.386642981629378490e-02
-3.682912787553219713e-01,1.257007440183660341e-01,6.511189106199835042e-01,-5.864145991134365188e-01,-7.738790752139622642e-01,-2.392260330578801497e-01
-3.459588253373304667e-01,1.159854751643142057e-01,6.897249207159179551e-01,-8.931821963419450672e-01,3.573506176458518535e-01,-2.729946889701470036e-01
-3.359550600532979492e-01,1.146789641682407213e-01,6.323802667104073683e-01,-6.160347204157360368e-01,-2.664009835508862056e-01,-7.413040801219339393e-01
-3.388874202687888193e-01,1.127303430442115617e-01,6.664105067760263124e-01,5.106093005694811726e-01,7.759866355935122195e-01,-3.703010714975141227e-01
-3.400212431599184404e-01,7.775498289655655149e-02,7.173081915022712085e-01,-7.409416241386931334e-01,-6.213717093707624706e-01,2.547600997259427125e-01
-3.328725360936183320e-01,1.103485693786641908e-01,6.673867537747624201e-01,-7.018740969508147076e-01,-7.120360262264799900e-01,1.942805664707675239e-02
-3.243163610277264297e-01,9.062938313971966031e-02,6.363650322977929541e-01,-7.717533654197740178e-01,-6.332407934436236063e-01,-5.833387079684020787e-02
-3.324469456794858502e-01,1.071127058569690538e-01,6.674558325353506794e-01,-6.111007195999600405e-01,-2.940817266216813608e-01,-7.348958079698248991e-01
-4.089358502448247057e-01,1.541047395769855333e-01,6.691978795344024622e-01,-6.406223512438277146e-01,-7.677899028365644529e-01,-1.008306446714908600e-02
-3.659857699710419854e-01,1.246761085097095323e-01,6.637137612608161596e-01,3.174964644620498211e-01,8.747272921963542558e-01,-3.661258790920577932e-01
-3.477667902196175387e-01,8.912166781764238599e-02,6.943196052108133731e-01,-9.414695303565658868e-01,-2.996335994234345379e-01,-1.544500874287358938e-01
-3.504247831936603830e-01,1.191273587697844610e-01,6.389812673133247189e-01,-4.991426404012587192e-01,-6.221749577824886579e-01,-6.031210048088345710e-01
-2.691698582988378829e-01,1.072299474477768078e-01,7.269666901026461403e-01,8.832237627235173250e-01,4.260069492726904078e-02,4.670128111221634737e-01
-2.892439979026334429e-01,1.385348776681348815e-01,6.848416039908757913e-01,4.758207924099658315e-01,8.185446838811636372e-01,-3.218371855461045206e-01
-3.356579574373013131e-01,1.028210317347547365e-01,6.486700724569250953e-01,-6.491878454066217774e-01,-7.554084588565946889e-01,8.895617833637257943e-02
-2.810444244426385518e-01,1.020668739080429210e-01,7.690663811071849487e-01,7.664174356637222241e-01,6.385326373557880242e-01,6.985975480994548181e-02
-4.064996644810974225e-01,1.549666612351041084e-01,6.586045266447586588e-01,-5.562545337410235158e-01,-7.514057954222649327e-01,-3.549228427396436958e-01
-2.694654197993369138e-01,7.997875973582269093e-02,7.000305959834006719e-01,8.587652444363694793e-01,-5.123230422789106786e-01,-6.881518598703720811e-03
-2.641806021143154881e-01,9.821180753409863851e-02,7.120788076635817809e-01,9.736250444344787258e-01,-1.315417381324618107e-01,1.864163189719453273e-01
-2.967223086027852008e-01,1.189507677778601780e-01,7.852143334338190783e-01,5.894572128720076964e-01,5.149407957987189866e-01,6.223955101182417904e-01
-2.716604039874108145e-01,9.520320038000744389e-02,7.599388390219377065e-01,6.732311609889815029e-01,6.830982951851366503e-01,2.830839504256433270e-01
-4.076735950013964382e-01,1.595645604286691499e-01,6.527033346751185405e-01,-4.418407067386094789e-01,-7.609437830206013942e-01,-4.751224567951110034e-01
-2.899821183497848232e-01,1.086149470508098736e-01,7.529996854603947520e-01,-4.330495994786590086e-01,-7.834683609192414355e-01,4.456965019269169548e-01
-2.662695432218111780e-01,9.061576490600906086e-02,7.613582782217707123e-01,5.054626740759731174e-01,7.739599933700633816e-01,3.814359890972242595e-01
-2.071110856240611919e-01,4.986131628354392026e-02,7.479400512861236194e-01,5.598481229097136413e-01,7.103020337106865645e-01,4.266627475898648880e-01
-2.197416582522383477e-01,6.101849615573884389e-02,7.455334799184530903e-01,5.579540181186579684e-01,7.481339073005394136e-01,3.591419919926827076e-01
-2.081434656786729231e-01,5.486075437731214449e-02,7.346821972478814189e-01,6.931869813803129832e-01,7.199410157000849519e-01,3.430368431495106618e-02
-2.547304734582743202e-01,8.463140703737737081e-02,7.434727924453644610e-01,-4.090857802950283451e-01,-8.195808550022724015e-01,4.011683517853220637e-01
-3.440265240633016419e-01,9.979458168189733747e-02,6.784276172444030362e-01,-8.787904052142267997e-01,-2.877004822847587656e-03,-4.771992734138061354e-01
-2.723383823452255603e-01,1.220588408038020267e-01,7.239947230980652293e-01,7.810479014910042261e-01,4.749795506563186387e-01,4.054116451642950647e-01
-2.898515217203385674e-01,1.414604891184717550e-01,7.099490303407374192e-01,3.951608134044656828e-01,9.066538990548909105e-01,1.477384136847446350e-01
-2.752627048347860428e-01,9.890352502465249440e-02,7.500083668674043524e-01,-5.059490509149735527e-01,-7.792735049388636037e-01,3.697950275200256876e-01
-2.906273214858153264e-01,1.385393850947730376e-01,7.211153743068375865e-01,3.470871829346570125e-01,8.669899324208142355e-01,3.575736910392544043e-01
-3.538146412738334412e-01,1.205137168620130372e-01,6.406177248783841982e-01,-4.727501405758871011e-01,-6.641542116140604080e-01,-5.791428906416662414e-01
-2.688232630868222506e-01,8.185201451182366750e-02,6.936975171930654938e-01,8.783368612340688442e-01,-4.584083272554471677e-01,-1.355955887938348758e-01
-3.433755122478993060e-01,9.985725037794321302e-02,6.771768598878782353e-01,-8.651153351315072904e-01,1.245295156737618539e-03,-5.015714367468234736e-01
-2.649371234551074483e-01,9.655150152742864034e-02,6.898383687188238689e-01,9.554386865163707609e-01,-1.319568471559448841e-01,-2.640536059146603165e-01
-2.747273668508771749e-01,9.950577594339848897e-02,7.584108127275068778e-01,7.342320117143854574e-01,6.664761212168607285e-01,1.292785087382079534e-01
-3.383268358437358514e-01,8.050506344105809453e-02,6.800581167593150456e-01,-7.110454806015759077e-01,-5.600572095839064790e-01,-4.251473233000087615e-01
-3.365405808564611578e-01,1.074332372848293138e-01,6.583677691613742944e-01,4.637019092275680432e-01,7.726567200206255759e-01,-4.335690629942097751e-01
-2.964077934848914908e-01,1.149294556677341594e-01,7.591973961817476413e-01,-4.322521880769026881e-01,-7.368661030646150856e-01,5.197945671677396406e-01
-2.951842560386375158e-01,1.110657438263297214e-01,7.529090334679416907e-01,-3.933871228211758275e-01,-8.287326039904395758e-01,3.980563310408493649e-01
-2.792540244143997819e-01,1.148045708984136715e-01,6.691402894885574160e-01,6.607555213971226804e-01,2.553780542963052236e-01,-7.058216420081279141e-01
-3.195189469599610255e-01,1.006192566458484483e-01,6.206312280061758724e-01,-6.103796277404013315e-01,7.386157674432783371e-02,-7.886578329797597764e-01
-2.765402892289122727e-01,9.674793856839339345e-02,7.690517628196160693e-01,7.832985417522110305e-01,5.703381248764873845e-01,2.473010671251383574e-01
-2.760822888459976698e-01,1.237235063314437999e-01,7.283793037082492150e-01,6.551635487008977687e-01,5.420928473209460918e-01,5.262091498036838288e-01
-2.023277343397523187e-01,4.934425778687001607e-02,7.387896468429703267e-01,5.750086851400540988e-01,8.078672198750982414e-01,1.292886965855321313e-01
-3.403123915021761259e-01,7.711722685685762357e-02,7.145328932158802049e-01,-7.287409456242739392e-01,-6.554788741660239060e-01,1.982021182850500496e-01
-2.772974743835685540e-01,1.083113945648074283e-01,7.366207857184752239e-01,4.524343769793411352e-01,4.699715544254425004e-02,8.905584775339713266e-01
-3.929573747019931007e-01,1.460211017731925798e-01,6.555809070003061345e-01,-5.838644945433297817e-01,-6.629571965033275172e-01,-4.686043188193110276e-01
-2.799853157309714069e-01,1.179119864106178417e-01,7.361686077553943885e-01,4.018926255157688199e-01,2.859351672539377498e-01,8.698984984947982779e-01
-2.760776083500248168e-01,1.325140170380473270e-01,6.985849593327384532e-01,6.266041655040658354e-01,7.760000578526377035e-01,-7.204949677587065004e-02
-2.565018536283793504e-01,8.410861656069756886e-02,7.628513152347550230e-01,4.270951354341905870e-01,7.357852307065360087e-01,5.255566949079614192e-01
-3.918730817321529059e-01,1.467017495636245561e-01,6.850780050652733877e-01,-4.539743629324425878e-01,-5.672426412415710884e-01,6.871266722791141701e-01
-2.640467867146280012e-01,9.364772155880929372e-02,7.029790829458958390e-01,9.754231417381682423e-01,-2.192179295535449102e-01,2.220796982838295699e-02
-2.514304831191294110e-01,8.038057141005994222e-02,7.633156667185949651e-01,4.902789744129884553e-01,4.889415221450774673e-01,7.215003223637553864e-01
-3.404755392985336915e-01,7.553599603514879468e-02,7.009752364526186108e-01,-7.161852503199739317e-01,-6.966149489262420946e-01,-4.250059007361395996e-02
-2.750028531793028974e-01,8.671313092112542531e-02,7.295264192277659543e-01,7.158036323774209508e-01,-4.293356455405325511e-01,5.507232184533209507e-01
-3.400613343411886813e-01,1.131015663598081422e-01,6.750441140754435132e-01,-7.793780827379277465e-01,2.734657556855140115e-01,-5.637253627566373160e-01
-2.294005686111122433e-01,7.116156011819840810e-02,7.450778014335470711e-01,6.888508194037595844e-01,6.799097276450648542e-01,2.514106418996275849e-01
-3.722048159408141155e-01,1.289903932813903642e-01,6.510423750447674740e-01,-6.057893791006658812e-01,-6.945927032789536160e-01,-3.880208818098135892e-01
-3.275409392822921095e-01,6.569092028465814415e-02,7.041892848973717589e-01,-5.513380166157066942e-01,-8.333862329101665578e-01,3.864942729278433853e-02
-2.202685431930178905e-01,5.567876189947129628e-02,7.535297196627792626e-01,5.027305262192606206e-01,5.454650275925410075e-01,6.706190585427571627e-01
-2.675473422410816760e-01,8.659925252199174306e-02,6.894466465425521662e-01,9.015614999485170866e-01,-3.556077016654319300e-01,-2.464346248537510609e-01
-2.769420011469225229e-01,1.015036752074957027e-01,7.539953749291532503e-01,5.256430933376810000e-01,8.187832696929012721e-01,-2.308534073766208283e-01
-3.387650449250672047e-01,1.317108424011966539e-01,7.025460732317208024e-01,-7.287860818793476803e-01,6.831350316146644897e-01,-4.687617134302250049e-02
-3.323810952295398469e-01,7.135600984137266400e-02,6.870179608694491069e-01,-5.961812058439032169e-01,-7.576635326649168167e-01,-2.655446121995855280e-01
-2.927474762610438042e-01,1.336431585811078682e-01,7.310613636965196394e-01,3.134480574959205290e-01,7.597301287707518558e-01,5.697020683567957100e-01
-2.726631535800955741e-01,1.160842593386769428e-01,7.299756068326748171e-01,7.858585769642424390e-01,3.122265849070323673e-01,5.337985169415773168e-01
-2.761815326665374437e-01,9.935828797519208333e-02,7.629039146097165158e-01,6.962685425628707403e-01,6.284214520357662703e-01,3.468379956963119626e-01
-4.076591668794329881e-01,1.602533368025323701e-01,6.512539981454195104e-01,-4.021185117964422573e-01,-7.673655495353396416e-01,-4.994505139219908574e-01
-2.741499410676762616e-01,9.792314037680627248e-02,7.615429191942578724e-01,7.314905491299830143e-01,6.224441922328446397e-01,2.783609241418731894e-01
-2.054024222228871821e-01,5.161104142665864231e-02,7.389441384971675575e-01,6.208230354154994357e-01,7.618509050099606661e-01,1.848295356077850338e-01
-3.434692214123070686e-01,7.989515379111974958e-02,7.101035591625961541e-01,-8.153255854389170887e-01,-5.608180509538738256e-01,1.439698004894970351e-01
-3.164178767645937085e-01,8.436768796335666898e-02,6.378537568901104793e-01,5.322495759523263592e-01,7.750424713741344007e-01,-3.406164359875237801e-01
-2.644691659164993824e-01,9.218413975089789769e-02,6.982713498714867573e-01,9.678521638306726294e-01,-2.466945216218293935e-01,-4.903062277864125157e-02
-3.087598225817130282e-01,1.088217174261808529e-01,7.426734136406535347e-01,3.997744492139304606e-01,-1.489872916553839841e-02,9.164924536650320697e-01
-2.353029900844495204e-01,7.393623332182568120e-02,7.507450066319233395e-01,6.062122099598719061e-01,6.294126117341617421e-01,4.861548320088460162e-01
-3.435958948925518786e-01,8.312919564585893872e-02,7.175497893969221552e-01,-8.416629987520023448e-01,-4.509546168557073131e-01,2.970577891056033204e-01
