x,y,z,nx,ny,nz
-2.650868678553047197e-01,9.652587339282037160e-02,6.893277116904700241e-01,9.530381512126547827e-01,-1.264954696899039943e-01,-2.750727468661375852e-01
-2.992552765932181558e-01,1.167001997679472103e-01,7.589366711459141213e-01,4.730223886245406018e-01,7.163908702016384966e-01,-5.128683466072685437e-01
-2.510399474837747835e-01,8.417910650372506520e-02,7.547961269321081801e-01,5.700909507500679929e-01,7.940190827905032611e-01,2.110213355028623117e-01
-2.080824010408151570e-01,4.600956976413728139e-02,7.193699207651058636e-01,5.626039014000370209e-01,5.689193907028922137e-01,-5.997701914942454859e-01
-2.481312286918287424e-01,7.556912988424302480e-02,7.627722478291484309e-01,4.987997787906189306e-01,1.524682598112991894e-01,8.532011547276198149e-01
-2.065527758618999343e-01,5.048857321341834042e-02,7.252386168174949077e-01,5.804808949072556290e-01,6.100219972523067691e-01,-5.368359107026060562e-01
-2.931492164159695268e-01,1.162475267052650585e-01,7.809072089856015086e-01,9.436090535447569927e-01,2.349365682998532934e-01,2.332525732845333877e-01
-2.722622223148871146e-01,1.163144813477993145e-01,6.774882301082252312e-01,7.859667626515304262e-01,2.957447533435446085e-01,-5.429468564020228927e-01
-2.177811898837066218e-01,6.259501665830613515e-02,7.315502368917529141e-01,5.373700716636452546e-01,8.392257162700301754e-01,-8.256139519633870494e-02
-2.752627048347860428e-01,9.890352502465249440e-02,7.500083668674043524e-01,4.941785755448175332e-01,7.791649301080858514e-01,-3.856028360400852173e-01
-2.695872450212320470e-01,8.597005347410839604e-02,7.182618908644592404e-01,8.537880815250044053e-01,-4.244598557252925453e-01,3.013023561590108534e-01
-2.507110545478504204e-01,8.094067066907884023e-02,7.625284602885561425e-01,4.955231118687974390e-01,5.895485880277302471e-01,6.378787564720846959e-01
-2.876513204197083673e-01,1.058244960010051861e-01,7.797863110870152381e-01,7.827318808552666818e-01,3.292990585830216643e-01,5.161565189460406433e-01
-2.898515217203385674e-01,1.414604891184717550e-01,7.099490303407374192e-01,3.920965614852491288e-01,9.074628486770384139e-01,1.509021694423200999e-01
-2.643380692833073864e-01,9.353011228144170186e-02,6.955555749732296178e-01,9.735569797068346354e-01,-2.069561090183451024e-01,-9.628301343978677707e-02
-2.666750768167520658e-01,8.743904750794173619e-02,7.105201427222458399e-01,9.090939589623514561e-01,-3.804124752826086864e-01,1.693384278749270888e-01
-2.534587588762338140e-01,8.295587018132211110e-02,7.622688083000377368e-01,4.162696550153794361e-01,7.097257558174089320e-01,5.683387421624401803e-01
-2.725541278593646144e-01,1.220482060313224926e-01,7.244146071753098104e-01,7.819944313403440761e-01,4.671417949351225340e-01,4.126296799522348735e-01
-2.825733691916845758e-01,1.026824669539928570e-01,7.500316095145755924e-01,4.550480793452418293e-01,8.301736223650501012e-01,-3.220916053136087531e-01
-2.156885544159451162e-01,6.119947448372842214e-02,7.313879728834560279e-01,5.763550236693517625e-01,8.144177315009878404e-01,-6.561118048384093071e-02
-2.547304734582743202e-01,8.463140703737737081e-02,7.434727924453644610e-01,4.068534782125128868e-01,8.075647636780770577e-01,-4.269077060990003059e-01
-2.070935817759215758e-01,4.295117720961572072e-02,7.564694662550019988e-01,2.472156044339578473e-01,5.068466794557028310e-01,8.257384367266125125e-01
-2.660149743620675022e-01,9.299255847930909535e-02,7.565871649436916035e-01,4.884813951441423496e-01,8.152487342694251238e-01,3.110553453489144360e-01
-2.545157166766073287e-01,8.361131638288499257e-02,7.621689286644262040e-01,3.936144227983268129e-01,7.513256492097751815e-01,5.296956248683295509e-01
-2.609069104275590911e-01,8.736903284986814733e-02,7.612705880230746791e-01,4.792752245386158738e-01,7.877109261794631445e-01,3.868360229573226117e-01
-2.289930995073091446e-01,6.830924441417059179e-02,7.492597112362209266e-01,7.305959684048147773e-01,5.337341180655257311e-01,4.257861239152264665e-01
-2.657804644278377038e-01,9.039277896285058400e-02,7.611044347525850462e-01,5.132557950797038693e-01,7.633980325111970888e-01,3.921631456105154623e-01
-2.757309179405009192e-01,9.623703673481942555e-02,7.347003971116428112e-01,6.990080327168713969e-01,-6.855351307113373427e-02,7.109114503508567884e-01
-2.558114166322356664e-01,8.485671073198319814e-02,7.428639687789921897e-01,4.228694160584736128e-01,7.992119101152471705e-01,-4.271320401144165224e-01
-2.716604039874108145e-01,9.520320038000744389e-02,7.599388390219377065e-01,6.904331045750750073e-01,6.657314800188302018e-01,2.806175112340278388e-01
-2.745684328761998638e-01,9.900201797485352895e-02,7.510234599631235852e-01,5.414939728297859522e-01,7.778540898121151237e-01,-3.189471623193740335e-01
-2.651880855631382206e-01,1.174302467703819408e-01,7.058654153106890261e-01,9.348338496849166734e-01,3.439717972700084836e-01,8.712365260253328303e-02
-2.821760866962215175e-01,9.649363100528718373e-02,7.386628923312672512e-01,5.754986091726407293e-01,6.842585145352976239e-01,3.570864486012511052e-01
-2.723132707706598099e-01,9.572338625788689992e-02,7.604870993138613811e-01,7.523152866672495609e-01,6.172310137574904543e-01,2.303206137163474609e-01
-2.730416629204253098e-01,9.488615985959769628e-02,7.312989831200331636e-01,7.862078348241280379e-01,-1.589806265782710004e-01,5.968850838790485946e-01
-2.939026558974704439e-01,1.082173095643520488e-01,7.486278567113203719e-01,4.546451391773068118e-01,7.910168903454972700e-01,-4.093776698973529138e-01
-2.877222221609543884e-01,1.385420812154188885e-01,6.868141664078000197e-01,4.724936607020712165e-01,8.288580474081319593e-01,-2.995731594170861212e-01
-2.733802807774248778e-01,9.740005932748319051e-02,7.599264457209007340e-01,7.704076163791604426e-01,6.052912018044349640e-01,1.999936099429088232e-01
-2.454690909814124522e-01,8.090687483549119374e-02,7.436667240183640892e-01,3.123654172342456015e-01,9.112554203412609466e-01,-2.684052999006306117e-01
-2.656499987853099820e-01,8.603068381547929189e-02,7.682822755785201352e-01,4.513850302730070263e-01,5.056548220611434274e-01,7.352310897750106156e-01
-2.694654197993369138e-01,7.997875973582269093e-02,7.000305959834006719e-01,8.565729648042919031e-01,-5.160054115802437114e-01,-4.601215740279152727e-03
-2.039036140984415435e-01,4.430818684399129292e-02,7.540216219043693879e-01,3.730128917762710050e-01,8.030091237950877092e-01,4.601224443473920789e-01
-2.851943231590589600e-01,1.356565583124756946e-01,6.836769247169350860e-01,5.032855053299930548e-01,7.904281902321350639e-01,-3.491804350347901265e-01
-2.047094055084957287e-01,4.761590749025346181e-02,7.481069303705005780e-01,5.040015265201528427e-01,6.857297684006034011e-01,5.251258382469959907e-01
-2.605705851681662244e-01,8.942671246826650044e-02,7.567398202813195862e-01,5.590822886965480798e-01,7.823618112512358280e-01,2.722516075838715688e-01
-2.041817289828822268e-01,4.528383602698645566e-02,7.520543465526173810e-01,4.067823695190626587e-01,8.461824182263365524e-01,3.441051871973935250e-01
-2.302333103841325279e-01,7.137869238853455922e-02,7.469397080221251706e-01,6.973622010027886731e-01,6.534796983472961340e-01,2.943641358258048402e-01
-2.668618042098996335e-01,1.160083155706524982e-01,7.178233904085418171e-01,9.146774461799083156e-01,2.976456442654308310e-01,2.732997906681347011e-01
-2.810444244426385518e-01,1.020668739080429210e-01,7.690663811071849487e-01,7.428910316484841347e-01,6.685917844702830015e-01,3.313519028304218877e-02
-2.691698582988378829e-01,1.072299474477768078e-01,7.269666901026461403e-01,8.932880713668159833e-01,4.103068179609214994e-02,4.475280173035864895e-01
-2.753916820121301012e-01,7.337026983499528310e-02,7.087339425613018440e-01,6.967592902465922222e-01,-6.939868960896005134e-01,1.814074957409064770e-01
-2.834491637900179439e-01,9.949441194534303090e-02,7.774054870831692554e-01,5.095256016373770347e-01,1.118736179552027726e-01,8.496502398161374092e-01
-2.355289220107515125e-01,6.978764697909356496e-02,7.554551055709149976e-01,5.795612624644699284e-01,5.174222150493055228e-01,6.265523536213704059e-01
-2.666099236214409252e-01,9.374427363276482961e-02,7.511059870340976996e-01,4.866302137672705030e-01,8.555294429066239159e-01,-1.768061293301294856e-01
-2.275491824829600773e-01,7.074067495763303182e-02,7.390340859186133038e-01,6.201488658623620642e-01,7.840275427969425337e-01,5.276793060807446860e-03
-2.635908434319673144e-01,9.795108502109846349e-02,7.075221380014401484e-01,9.862728994931194704e-01,-1.383563221743809857e-01,8.987838343553361531e-02
-2.213429730608444390e-01,6.575391009449960134e-02,7.371066281637088657e-01,6.568123643406209577e-01,7.528390378602760613e-01,3.452982102851921004e-02
-2.870921125588850042e-01,1.127929104119539394e-01,7.667587227435505026e-01,7.583389119098934428e-01,6.511672189343973294e-01,3.005574268856552045e-02
-2.979369955924507929e-01,1.227533941715955867e-01,7.699401289023023454e-01,5.258587146354263275e-01,7.937348616574132487e-01,-3.057083277106862895e-01
-2.656296589368020156e-01,1.073171956092119350e-01,6.863712734851603603e-01,9.306667784390484366e-01,9.300869980116893698e-02,-3.537320264335719333e-01
-2.928652515207443296e-01,1.083222286403179302e-01,7.497369850797013235e-01,4.497479142488854387e-01,7.874956422173622350e-01,-4.213993677231154811e-01
-2.405939949260514077e-01,7.945028074085713765e-02,7.448733629053643224e-01,3.884169478818179089e-01,9.207485745043008096e-01,-1.147886746796705423e-02
-2.791818657769414846e-01,1.310670528188347950e-01,7.220725105813150524e-01,6.209130174775002731e-01,7.024103597303936741e-01,3.479751589846670767e-01
-2.896792560883608147e-01,1.115713914483785762e-01,7.588460530094945922e-01,4.280684080553125437e-01,8.002046337505469564e-01,-4.200356915181654438e-01
-2.777855537430941602e-01,1.276818166424830980e-01,7.255255962935986958e-01,6.243233677561014217e-01,6.431194478645142487e-01,4.432409143778429095e-01
-2.973749831118477349e-01,1.148524893075227871e-01,7.581188242311007741e-01,4.728535065652219038e-01,7.248263351229846663e-01,-5.010352734500400640e-01
-2.719648864236947627e-01,1.101776504516601696e-01,7.310369543945918203e-01,8.060647477320501686e-01,1.264909890937389036e-01,5.781519282522148417e-01
-2.747871300913014014e-01,1.265519111044705047e-01,7.225387935936876671e-01,7.106993021605182426e-01,6.044349385776817130e-01,3.596490036054671435e-01
-2.655740229110407080e-01,9.644354354590178868e-02,6.877786609334115564e-01,9.438223470034783347e-01,-1.334285314248299104e-01,-3.020881997365685856e-01
-2.468739616842577367e-01,7.416035920381547353e-02,7.620489335268642028e-01,4.817729914286549842e-01,7.521251350404545288e-02,8.730623474542295037e-01
-2.055017865322906478e-01,5.121934851010642026e-02,7.401912646614131619e-01,5.924156740149381095e-01,7.548996327585862920e-01,2.810169046794319114e-01
-2.527368278081999486e-01,8.474314153194428823e-02,7.571759338197563416e-01,5.402151108258879120e-01,8.114772380462228485e-01,2.228728924033777925e-01
-2.084695382985863044e-01,4.835566520690919023e-02,7.521720936206394148e-01,6.594559059088108688e-01,6.511710997672294221e-01,3.753436468040947105e-01
-2.186803911642235809e-01,6.238302901387215993e-02,7.407237546910583337e-01,6.221102924634930309e-01,7.272989156238565123e-01,2.886102632525675560e-01
-2.790333712931825083e-01,7.943752348423005483e-02,7.268549260390122502e-01,5.629994381874769971e-01,-6.460738448058763739e-01,5.153835655687302175e-01
-2.675960696535713002e-01,1.087306955456733837e-01,7.236209920118437111e-01,8.960717388881470624e-01,6.049336308319737399e-02,4.397681113824157828e-01
-2.449748135826411710e-01,8.108398258686067006e-02,7.492256370537289101e-01,5.300625785039045912e-01,8.314714035196107966e-01,1.634614482784046419e-01
-2.355865440196721061e-01,7.334653973579408071e-02,7.517895452462107775e-01,6.165917797466688999e-01,5.862190980977662891e-01,5.255109382061201595e-01
-2.717454227550754053e-01,9.290068909525872609e-02,7.435525171164574232e-01,4.795327734733250136e-01,8.193123523492269467e-01,-3.138781791219853456e-01
-2.117241137392155970e-01,5.595069505274297139e-02,7.418617603046385733e-01,7.082443075603832572e-01,6.070779770827465782e-01,3.587945208088866300e-01
-2.021029132609906964e-01,4.887272606293361493e-02,7.403997472045272810e-01,5.107206747744793551e-01,8.455559326846612267e-01,1.546003020178572385e-01
-2.940229903697514913e-01,1.147494244948029651e-01,7.852521994404467742e-01,8.432047509997897539e-01,2.689125806534690133e-01,4.578920126020514791e-01
-2.669708393471303398e-01,1.083327348902821674e-01,7.223825186031224144e-01,9.061701078626587247e-01,6.196134322176015397e-02,4.180878099363672940e-01
-2.804134107481810467e-01,1.357385025918483867e-01,7.059983119821459097e-01,6.025766789812664337e-01,7.968777483336688672e-01,4.288788598670052743e-02
-2.503305920272337892e-01,8.156893466909727330e-02,7.614279882440574410e-01,5.567489185106967442e-01,6.770017209088236010e-01,4.763605171834208174e-01
-2.264513168987423719e-01,6.949856072664262197e-02,7.416180084785994886e-01,6.608704893046699613e-01,7.259834283908057628e-01,1.888622839382710916e-01
-2.552968565886435393e-01,8.407483562827111623e-02,7.420716197630362609e-01,4.187806596734040543e-01,7.999915450922537863e-01,-4.296932474037926664e-01
-2.058559293372955734e-01,4.517366304993630788e-02,7.540966047173646158e-01,4.382198699248088802e-01,7.584536254615248385e-01,4.806033782573103652e-01
-2.373781388437528894e-01,7.215958401560784718e-02,7.552231353967597816e-01,6.547569175170969702e-01,5.582131124052875926e-01,5.092642357343069026e-01
-2.808852057427455584e-01,1.021077477931976452e-01,7.718895523619659915e-01,7.028785130932097003e-01,7.041414906227686510e-01,1.007301197032140910e-01
-2.504290633850421166e-01,8.304895307868720433e-02,7.570076026274870085e-01,6.032103814482672188e-01,7.678902950562936924e-01,2.153672067914821353e-01
-2.774891985617639056e-01,1.023884055763483181e-01,7.567342687900967535e-01,6.445889295881962466e-01,7.586712308521852410e-01,-8.199560702039329629e-02
-2.903272134266620119e-01,1.206094234809279575e-01,7.383417258811768580e-01,2.234117908247315598e-01,5.185780221211777619e-02,9.732263444551123577e-01
-2.200828255955654400e-01,6.395395537217458959e-02,7.312872568520359939e-01,5.674147244005220969e-01,8.133334403880922991e-01,-1.243905886645279013e-01
-2.708195283203915782e-01,7.791818991303445241e-02,7.029110556737943050e-01,8.225528524728458191e-01,-5.677589490271204298e-01,3.151023326500400346e-02
-3.087924129633896064e-01,1.139304818212986126e-01,7.426689914789168512e-01,3.634106454540834696e-01,-4.033350728068445246e-02,9.307555591889237201e-01
-2.632026733411170216e-01,1.013484404981136455e-01,6.963657488036745224e-01,9.938671539072900796e-01,-4.546002253765621393e-02,-1.003565240100446065e-01
-2.359366818180085867e-01,7.643566220998765370e-02,7.476639560446987076e-01,5.942025514366990890e-01,7.579601226285991311e-01,2.691092350161102820e-01
-2.400359930380009388e-01,7.559890426695348165e-02,7.540639825550013997e-01,6.069648686654335323e-01,6.629675711429316998e-01,4.375281862415822398e-01
-2.631710554608405750e-01,1.054922634363174572e-01,7.091537561386997979e-01,9.906325407059650701e-01,3.268673731848460717e-02,1.325848652671814676e-01
-2.730943297751390886e-01,9.653631165623666188e-02,7.613320537294802071e-01,7.720022828251548175e-01,5.994003308898386839e-01,2.114987438305521994e-01
-2.624677591295239698e-01,8.885448738932610890e-02,7.602335811837089841e-01,4.624111963226873456e-01,7.801947346307148701e-01,4.211914313097193663e-01
-2.670767323470815136e-01,1.218343603983521595e-01,7.058062130334562534e-01,8.963147011458879598e-01,4.385661111258525313e-01,6.335132495772888284e-02
-2.654054351346413765e-01,9.088598504662515065e-02,7.597946168309532844e-01,4.924422201958809087e-01,7.624412868622407746e-01,4.197234716179223390e-01
-2.735776622275884473e-01,1.293071409314870968e-01,6.922149175595149195e-01,7.050449922700982031e-01,6.888953564447078959e-01,-1.683292807083070219e-01
-2.821782709524557897e-01,1.065611647069454326e-01,7.586091186982873991e-01,6.258050532468251159e-01,7.636256976823108111e-01,-1.588830675998619268e-01
-2.027520414460428078e-01,4.979458019137383840e-02,7.343534390339838680e-01,5.897150884573598706e-01,8.038159232763802953e-01,-7.712997256741087326e-02
-2.639033112252270330e-01,9.496124774217606923e-02,6.970666587750663501e-01,9.783789753485157004e-01,-1.920561710175305026e-01,-7.608572567016026744e-02
-2.950385150137413981e-01,1.150363528728485241e-01,7.603055466899967252e-01,4.331020490328275074e-01,7.144229610136516584e-01,-5.495656902500850594e-01
-2.773869938251014577e-01,7.253197148442269704e-02,7.120239257012068723e-01,6.395649992507616011e-01,-7.292333606063261531e-01,2.418011859877864378e-01
-2.729510268183154564e-01,9.832060277462006948e-02,7.539885306826132894e-01,6.242516374677230528e-01,7.811724750713899823e-01,-8.913882975733693204e-03
-2.669177882744471764e-01,9.198855921626092336e-02,7.596457624448573753e-01,5.007039055423906371e-01,7.662329594772004926e-01,4.026377604982185332e-01
-2.638714909831323396e-01,9.240028388798238179e-02,7.536915348695478745e-01,5.229226285103526495e-01,8.499126997302428599e-01,5.016463926093494424e-02
-2.229405346508988306e-01,5.904568672180177114e-02,7.527665409186263812e-01,5.075169279284595936e-01,5.719254287255821634e-01,6.443949611854180581e-01
-2.787426957170320296e-01,7.662257120013238332e-02,7.226415212868139148e-01,5.880474259483969846e-01,-6.746041576141430518e-01,4.458653870566076094e-01
-2.745044846831013463e-01,9.432468503713609120e-02,7.426767174691455420e-01,5.044653334366011599e-01,7.976507193528115103e-01,-3.305571921417547188e-01
-2.891150086449113532e-01,1.052896691113710537e-01,7.477665348703982362e-01,4.341305975036682252e-01,8.222005801691869564e-01,-3.678532054882502900e-01
-2.912741203468467988e-01,1.173100949823856487e-01,7.732372393722706239e-01,8.447185772857570552e-01,5.177842473090146225e-01,1.354621660352568757e-01
-3.010825527030623894e-01,1.177058828622102871e-01,7.896047622478935546e-01,4.812547798179567793e-01,5.222017828258324057e-01,7.040590422087424916e-01
-2.910043815524953059e-01,1.424467362090945377e-01,7.012344000703265579e-01,4.307444350716548298e-01,9.019364850847646498e-01,-2.941147933921646820e-02
-2.926757869617564456e-01,1.112962545454502239e-01,7.556319940537801205e-01,3.606846442955611298e-01,8.408930090194635110e-01,-4.034916786646001730e-01
-2.773747040849113277e-01,1.024165948480367794e-01,7.586111494098203289e-01,6.998056655339910392e-01,7.123214157466093432e-01,4.489936780268897337e-02
-2.809545699419498943e-01,1.020664492249488964e-01,7.676643523122839152e-01,7.718449530190543140e-01,6.132140745325549425e-01,1.592351935646381667e-01
-2.697893729138418628e-01,1.071739190816879406e-01,7.282239304714349659e-01,8.771771070076226362e-01,4.224005083136745525e-02,4.778300977967026020e-01
-2.715230568221171925e-01,1.175305911898613109e-01,7.269509443521771086e-01,8.238999590952682528e-01,3.685080166055783590e-01,4.305319708105282417e-01
-2.926389682309709084e-01,1.129039249941706791e-01,7.823722947040309128e-01,9.190788652540657910e-01,2.623357601027024866e-01,2.922167219478402633e-01
-2.773304771088123677e-01,7.878489360213281056e-02,7.238855849988441449e-01,6.292016982535673097e-01,-6.362919236745270268e-01,4.460211550392805258e-01
-2.001470587295257619e-01,4.506798774003983876e-02,7.474633880696105459e-01,5.909631058417218474e-01,7.118953093631422702e-01,3.794307262737979247e-01
-2.710081460139099896e-01,1.056884111464023723e-01,7.302933287023823938e-01,8.289908325288750657e-01,-2.266781745742835891e-02,5.588026213564136757e-01
-2.666094613456447826e-01,1.115218003839254512e-01,7.206314149137480474e-01,9.278026956536522540e-01,1.674740608066871139e-01,3.330079291613405879e-01
-2.803371136829911903e-01,6.924962192773820302e-02,6.910743331259713296e-01,5.979126642148564486e-01,-7.815213767336240958e-01,-1.781145240564986909e-01
-2.660509204249352777e-01,1.072656785696745052e-01,6.853006600875054533e-01,9.221237046480547095e-01,8.916777749724114077e-02,-3.763748732224348470e-01
-2.918900945438029915e-01,1.084211835265159740e-01,7.508322470327180032e-01,4.619171152690343396e-01,7.790016943249016279e-01,-4.240152578156430874e-01
-2.791814453797888951e-01,1.040691671520471706e-01,7.584323439878022377e-01,6.669210346596464722e-01,7.421612396823411562e-01,-4.175988235881018806e-02
-2.140893065703309561e-01,5.648961851994197675e-02,7.452455269084383715e-01,6.888004844563107021e-01,5.132739524260427899e-01,5.116277589399392811e-01
-2.855917366182090800e-01,1.289951413497328891e-01,7.323288411634333306e-01,4.583047913975731302e-01,6.345107840726191828e-01,6.223767211886841455e-01
-2.935076382560452557e-01,1.147809851542115345e-01,7.838061704872545388e-01,9.146864355434637384e-01,2.540940689288792020e-01,3.138526335010608515e-01
-2.887506705791247352e-01,1.106847909837961330e-01,7.579687491383010345e-01,4.486162668173616641e-01,7.994712256513797355e-01,-3.994861756085364979e-01
-2.771042450212563013e-01,1.010053356736898555e-01,7.521109474185476707e-01,4.861236132356818729e-01,8.209824268592796903e-01,-2.990316788403237225e-01
-2.647310863108933154e-01,9.483651881416639562e-02,7.120899816621295564e-01,9.640172809976643720e-01,-1.838367733422952843e-01,1.915672314899910800e-01
-2.775993062197290584e-01,1.024009691178798809e-01,7.599875807037286268e-01,7.128192811814622054e-01,6.855978439487272480e-01,1.477980674731574906e-01
-2.929493986633271985e-01,1.122572378814220562e-01,7.575596537058728597e-01,3.554557083634537484e-01,8.221081345469168911e-01,-4.447352633911814679e-01
-2.969073972771765213e-01,1.138974515348673000e-01,7.571740124201561395e-01,4.604588513443733655e-01,7.493195360669012706e-01,-4.759179331429989612e-01
-2.760212351682434506e-01,9.377245793739956425e-02,7.718570149377752543e-01,6.962251464225199804e-01,3.264418074510042622e-01,6.354577504924330267e-01
-2.201384476204785168e-01,5.966257989406587026e-02,7.221906175248286042e-01,5.304464535119745028e-01,5.390748413921143678e-01,-6.542361006048468264e-01
-2.980568267776013691e-01,1.147967645525932445e-01,7.570620195107985451e-01,4.734642417332364239e-01,7.330285695860202511e-01,-4.883653631971097697e-01
-2.660210056920975230e-01,1.100024360790848865e-01,6.862385831093884558e-01,9.275313536472302722e-01,1.446876579679758079e-01,-3.444914199052327985e-01
-2.807206516819812925e-01,1.357264345139265194e-01,6.967584069304592065e-01,5.868360525179819875e-01,8.065071902991508557e-01,-7.189992670984834966e-02
-1.976053993304889289e-01,3.972493549187979672e-02,7.540135238694752884e-01,6.373216885841617163e-01,6.007763245136817920e-01,4.816665670450531178e-01
-2.992872294097170816e-01,1.236771134287119045e-01,7.708509602207973543e-01,5.243683192835629781e-01,8.042760051023759571e-01,-2.796032427356560102e-01
-2.885012976293253595e-01,1.031953947246074810e-01,7.810340670168508526e-01,6.579769421050493117e-01,-6.489937329114323084e-02,7.502362394636141740e-01
-2.617973823650204812e-01,9.095790922641755483e-02,7.539393416138340243e-01,5.775798354334364948e-01,8.123240016134533059e-01,7.479960336161314838e-02
-2.862540805095835639e-01,1.080271856486797466e-01,7.553365355772222456e-01,4.400870833851173169e-01,7.801455273155135650e-01,-4.446305379156723636e-01
-2.958915693227741062e-01,1.109962196648121013e-01,7.513487473708605480e-01,3.988166913545058700e-01,8.309442561947213424e-01,-3.879135081355717940e-01
-2.939895549075587367e-01,1.180656564980745449e-01,7.657794060704429251e-01,5.047744132500903147e-01,7.907231870608590896e-01,-3.448385918206562373e-01
-2.458500697987973105e-01,7.935073912143708608e-02,7.579481333228514917e-01,5.947403714238841399e-01,7.708205395190906861e-01,2.282971450852558926e-01
-2.729656006482222286e-01,8.003762677311898610e-02,6.838839013634998576e-01,7.828969123675475483e-01,-4.993650574421334420e-01,-3.710888896358598421e-01
-2.856814605898332360e-01,1.072453068196773662e-01,7.725697293227544726e-01,7.392378224180982116e-01,5.472016293582304680e-01,3.925529502299608398e-01
-2.940742039549981701e-01,1.282318372838199272e-01,7.372620570322123701e-01,2.274568457689712386e-01,5.199920505678058413e-01,8.207548443749259626e-01
-2.784663369375159347e-01,6.982196062803269765e-02,7.026834695307468959e-01,6.107459859048730566e-01,-7.893030808204639648e-01,6.255191711187381431e-02
-2.556939340274347883e-01,8.509305059909821889e-02,7.603211981825422905e-01,3.783889158085482207e-01,8.350232589421973106e-01,3.994470996499832061e-01
-2.612859472364254532e-01,8.845982268452645680e-02,7.597599281495778234e-01,4.728209558294316772e-01,7.761040570689329288e-01,4.172563197001156743e-01
-2.793822346426207970e-01,1.043573369830846920e-01,7.372164430118977041e-01,3.029814315277788994e-01,-5.830676925314643572e-02,9.512012831124192491e-01
-2.235480696197220674e-01,6.741244286298753163e-02,7.343050627578131540e-01,6.389846862313701692e-01,7.662145778813114205e-01,-6.744051114428073479e-02
-2.172949771490760851e-01,5.912514343857766530e-02,7.463340314800601671e-01,5.607797769374287533e-01,6.862740457961438167e-01,4.606064066587129968e-01
-2.821398070910210998e-01,9.683526434004308125e-02,7.765177607884631295e-01,5.414203307813498789e-01,-6.581559394188656043e-02,8.375991415813403007e-01
-2.640499992588282163e-01,9.021055266261102101e-02,7.594824996371067893e-01,4.705390400062070544e-01,7.669774359205320247e-01,4.362322976751244474e-01
-2.207103014893903037e-01,6.397702485322953603e-02,7.285487497387137523e-01,5.836892284816362908e-01,7.953321039383968172e-01,-1.604868204026692613e-01
-2.739342794450507768e-01,7.555233255028726003e-02,7.105213448747282889e-01,7.350028698926116544e-01,-6.462312947148870501e-01,2.051914238379689281e-01
-2.914458893204143197e-01,1.173027300834655895e-01,7.741954999272557814e-01,8.630115739292275601e-01,4.642537495779088808e-01,1.991970864923723883e-01
-2.469601102976639317e-01,7.707727640867234609e-02,7.620405399253895595e-01,5.397211186974805175e-01,3.334774549323947790e-01,7.702513516111614278e-01
-2.687107969983530964e-01,1.163449290767312183e-01,7.224595707229095609e-01,8.521144355614004295e-01,3.278693758903676869e-01,4.077060018943686748e-01
-2.085729231147123997e-01,5.296800039708615682e-02,7.419101597503546808e-01,5.789528394359627628e-01,7.406026241366203688e-01,3.404357485427770280e-01
-2.598384808731341034e-01,8.696417078375817677e-02,7.607857583471675511e-01,4.802384662228920686e-01,7.836423450107448119e-01,3.940503656462521209e-01
-2.400643262325380944e-01,7.399574607610703847e-02,7.569484254867330231e-01,6.883805869925376797e-01,5.778190333965577130e-01,4.384715864186378709e-01
-2.566237136355679627e-01,8.469448924064637563e-02,7.418562645380308851e-01,4.406670544588893179e-01,7.915029796008639096e-01,-4.234803187840971428e-01
-2.761485388776757643e-01,7.708907440304757497e-02,7.194174429895309197e-01,6.713451556236503803e-01,-6.336705508779780782e-01,3.841684710046484597e-01
-2.712865581479239063e-01,9.539725758135320088e-02,7.587561662005708474e-01,6.377149899440603953e-01,6.967538948292019141e-01,3.256129863940374625e-01
-2.188921804227304535e-01,5.593898385763169945e-02,7.521162465413826492e-01,6.155204985050884980e-01,5.398447825160325175e-01,5.731053417724003562e-01
-2.776452723545054235e-01,9.829471666365863225e-02,7.688236623136610604e-01,7.890021630822290355e-01,6.044577425180308605e-01,1.012743632354870249e-01
-2.175968906052260787e-01,5.128346323966981313e-02,7.550441706686293886e-01,2.920973206770483555e-01,5.563211491993150792e-01,7.779369731583933856e-01
-2.749432410365290624e-01,1.010757753252983226e-01,6.707722194441196883e-01,7.181566751804044912e-01,-3.208224046310668293e-02,-6.951415105866535216e-01
-2.743917537349269131e-01,9.934576292832693334e-02,7.525889095957686292e-01,5.874787395986805771e-01,7.848506479428873917e-01,-1.914002153162493169e-01
-2.788302390565353117e-01,8.422245770692826650e-02,7.316336326348276131e-01,5.844528029280620096e-01,-5.393418027142946602e-01,6.062386831887478511e-01
-2.667586220157845966e-01,9.083875084916752385e-02,7.616121216909564895e-01,5.238411268392625386e-01,7.651890779149951305e-01,3.741212392240235718e-01
-2.724754641552087353e-01,1.130347162112593784e-01,6.755112481314917705e-01,7.799741035286917867e-01,2.278718865903766044e-01,-5.827630875067923988e-01
-2.724521122890307123e-01,9.660015195608140370e-02,7.586391799444269779e-01,7.181417639958191934e-01,6.455642997131927352e-01,2.598444568213612027e-01
-2.729741503963256655e-01,9.743871480226518056e-02,7.581272620963193098e-01,7.249792573868982792e-01,6.543314730915660293e-01,2.125889226089661688e-01
-2.677664055845609958e-01,9.646214298903943440e-02,7.226661863210501746e-01,9.154973918194115878e-01,-1.603538205803941019e-01,3.688806999091373551e-01
-2.462641704105871243e-01,8.159992597997189900e-02,7.448084540434409817e-01,3.743122618296629289e-01,8.975603674046052083e-01,-2.259239807282815982e-01
-2.695441229041101172e-01,8.001665897667409322e-02,7.041992596000294924e-01,8.573705807473563922e-01,-5.112294876003348199e-01,5.877700766991132697e-02
-2.041952728005296813e-01,4.368425846099854848e-02,7.550608843361499289e-01,3.059816396136468275e-01,7.115494309503815895e-01,6.266809172560116048e-01
-2.844527539808307526e-01,1.356673183478415146e-01,6.849010151657211054e-01,5.183121364185980795e-01,7.911752747616361825e-01,-3.246447502225131565e-01
-2.601732871850391815e-01,8.947880879044534108e-02,7.554588739983527645e-01,5.709487583814127909e-01,8.009201945023216584e-01,1.804005469534011863e-01
-2.858082126235099718e-01,1.091201373934745922e-01,7.706600909306814406e-01,7.902007115356810552e-01,4.681159287493966703e-01,3.955380041659628532e-01
-2.442225473226663224e-01,7.447112292051316640e-02,7.609167738456502628e-01,5.590050111553890311e-01,1.791313086568937507e-01,8.063686460514024601e-01
-2.714357282035880781e-01,1.010686283558607235e-01,6.749447274706659172e-01,8.122376884479978187e-01,-4.127645658326795086e-02,-5.816900522382343341e-01
-2.338142884764706775e-01,7.376792470614117192e-02,7.347185231302221231e-01,4.320060545872693170e-01,8.606789285425281433e-01,-2.680329354272695253e-01
-2.651136862117476345e-01,1.072300703823566570e-01,6.877786048061169666e-01,9.429382093904988826e-01,9.626118099729931432e-02,-3.182916131191086406e-01
-2.813133083334228846e-01,1.057048583030700817e-01,7.577497814466347403e-01,6.180110914088713381e-01,7.615415009101969002e-01,-1.952353279687366328e-01
-2.823827911935538615e-01,1.065334299206733837e-01,7.576424378720699737e-01,5.951990658167477521e-01,7.672325614927464343e-01,-2.389398849839639294e-01
-2.730238056437924721e-01,9.829873159527779958e-02,7.525976946531143241e-01,5.981885721954830482e-01,7.848091955808629283e-01,-1.527230832036612918e-01
-2.642772400166426006e-01,1.149389787515004563e-01,7.045917280752055367e-01,9.641097082728985468e-01,2.589292674494894642e-01,5.537792022686388593e-02
-2.844873404126481709e-01,1.043756225705146923e-01,7.517058758051373690e-01,4.593271835167627715e-01,7.875572796502999795e-01,-4.108187796977850748e-01
-2.140673517946999338e-01,5.956957678000133344e-02,7.374444565731721468e-01,6.335588489745438423e-01,7.576047020163579893e-01,1.563383110869462911e-01
-2.865086936795340211e-01,1.089694698899984493e-01,7.572283203477510050e-01,4.729803184250672143e-01,8.028117219765352752e-01,-3.630192246143341128e-01
-2.662921916537763778e-01,9.380570739507676503e-02,7.524999327387325021e-01,5.058743928895470532e-01,8.588360905875142004e-01,-6.758732216259624725e-02
-2.276247884266300314e-01,7.069401197135449788e-02,7.374280410535093422e-01,5.893211083324303434e-01,8.052763760585448516e-01,-6.196848789093978294e-02
-2.713444914898669458e-01,9.645519345998765370e-02,6.759256311143723162e-01,8.119093161657729985e-01,-1.430843156124225746e-01,-5.658804575215281574e-01
-2.940175633373968145e-01,1.121628185361623897e-01,7.564746553039111143e-01,3.609050233428462984e-01,8.315930106741897809e-01,-4.221381630742904179e-01
-2.991474041459019628e-01,1.158619256317615642e-01,7.896070047377445889e-01,5.388067119402156768e-01,3.793311742032964839e-01,7.521935837573474615e-01
-2.759622770437091255e-01,7.849455192685128591e-02,6.804717571052421032e-01,7.111389808048860228e-01,-5.324478101802696539e-01,-4.585845911221706483e-01
-2.869300974992997633e-01,1.071356622129678859e-01,7.748878246218428023e-01,7.156469286270855656e-01,6.182236182150170345e-01,3.233432469739228043e-01
-2.812768533459149012e-01,6.933470755815507314e-02,7.110682574094773223e-01,5.353941678958704653e-01,-8.110995957578823745e-01,2.355218264715354670e-01
-2.213654923721546375e-01,6.572569102048875234e-02,7.359345663539770266e-01,6.505000280837969218e-01,7.585536083013706410e-01,-3.802810534263177666e-02
-2.636795169579407849e-01,9.825193077325822255e-02,7.090181602771548075e-01,9.842704692476871298e-01,-1.357865992483734408e-01,1.130205416351361680e-01
-2.380865984628307563e-01,7.079845234751702687e-02,7.571818244908214979e-01,6.170741117965985456e-01,3.263612270271422089e-01,7.137469936962830275e-01
-2.988622795963443712e-01,1.147317992150783672e-01,7.559883907269066006e-01,4.684036058879680331e-01,7.527692395776828249e-01,-4.625327382324257997e-01
-2.265762303298708147e-01,6.923750728368760488e-02,7.284940012593525971e-01,4.884098924761290372e-01,7.974400698394781273e-01,-3.489848113647119332e-01
-2.846753756460975726e-01,1.271201235800981655e-01,7.334543435858378313e-01,5.050362653307164384e-01,5.659246627294695076e-01,6.516652874101384052e-01
-2.670338240836244714e-01,8.600100815296174428e-02,7.090453043288473811e-01,9.022405428205575451e-01,-4.035350737056426773e-01,1.520573812093553301e-01
-2.631715100547553643e-01,1.041477596014738216e-01,7.091536306266704726e-01,9.911110714134044875e-01,-1.523651480905314527e-02,1.313265938943821709e-01
-2.054735609976687527e-01,4.564487688243390462e-02,7.527010065719033083e-01,4.575028621663972395e-01,8.079930603312790449e-01,3.695069855749582577e-01
-2.755904099701300125e-01,9.957727481921514745e-02,7.617206650329034767e-01,7.036818543253843261e-01,6.329472654583411240e-01,3.210271406095735469e-01
-2.295195183933025629e-01,6.922976985573769948e-02,7.266067409310937864e-01,2.983700900776303233e-01,7.894207051063859559e-01,-5.357761771076505752e-01
-2.724977844810114180e-01,7.831947818398476979e-02,6.878280909902431128e-01,7.936418297111267339e-01,-5.412500771295356561e-01,-2.778146866888903110e-01
-2.460811165467972350e-01,7.877167006333669896e-02,7.598851659233664124e-01,6.349989610800959028e-01,6.429332095424736826e-01,4.213332453462099725e-01
-2.786739098746337517e-01,9.958137139678002736e-02,7.720143555828772319e-01,8.359822322112913096e-01,5.218391653927521023e-01,1.697574531183316804e-01
-2.745623842619367982e-01,7.348664045333863637e-02,7.046990175255469779e-01,7.193652512408272859e-01,-6.893906750882579093e-01,8.466784166847021731e-02
-2.581898766506686149e-01,8.722498580813409230e-02,7.583182678017800216e-01,4.547823181398150671e-01,8.185215737147533144e-01,3.509921316367360378e-01
-2.156302932930804217e-01,5.457426548004151723e-02,7.206794121758044458e-01,4.763493597030655780e-01,5.747783345649208897e-01,-6.653638145984905883e-01
-2.948291770249918398e-01,1.101020587235689296e-01,7.504853921235519199e-01,3.998203681918283126e-01,8.194231701356886610e-01,-4.107180802250238183e-01
-2.737906069525632424e-01,1.105748986452818050e-01,6.731197379595399433e-01,7.466809109308658599e-01,1.669389847999235565e-01,-6.438936190128174974e-01
-2.278021574917101777e-01,5.800504922866822621e-02,7.552392869859770874e-01,3.778377158820533932e-01,3.404732220653697849e-01,8.609974712584576029e-01
-2.716516720837280907e-01,1.280273435264825954e-01,7.087628584017600097e-01,7.508357288919188521e-01,6.503960725134088072e-01,1.138475412012842081e-01
-2.467884547247725102e-01,7.918715789914132497e-02,7.603725132739390657e-01,6.243230096595360212e-01,6.305882969504911228e-01,4.610630969387358724e-01
-2.453715685063164731e-01,8.021757692098618886e-02,7.529587785128845079e-01,5.699910940807690896e-01,7.863309809770629988e-01,2.383143743550892868e-01
-2.749667723737579950e-01,1.173110821843147411e-01,7.323409304622754412e-01,7.111768087577847730e-01,3.537775920726692891e-01,6.075104624879781312e-01
-2.835162372388421725e-01,1.265308171138167515e-01,7.330167317501321556e-01,5.317312890080025944e-01,5.518607707774306759e-01,6.421619288831122985e-01
-2.090216280001086502e-01,4.832609683275224111e-02,7.532660532717428969e-01,6.199893802097345974e-01,6.450440323604484938e-01,4.466893380676570380e-01
-2.788048088077943465e-01,8.043083861470223805e-02,7.278485166814913088e-01,5.655120433832754312e-01,-6.219137594513185485e-01,5.416820142792262427e-01
-2.787448301029881170e-01,1.031648473441600933e-01,7.556655840092935117e-01,5.707864437047219797e-01,7.925552839992074938e-01,-2.136591591503022025e-01
-2.482911231494789872e-01,8.055490940809251210e-02,7.602172765763708373e-01,5.980549177688679885e-01,7.235348999936310754e-01,3.447137418550045851e-01
-2.020131734403236845e-01,4.910501778125764272e-02,7.388561072590766887e-01,5.621750558132829756e-01,8.158518425355746340e-01,1.341951673434076953e-01
-2.664113085788369917e-01,1.083811664581298961e-01,7.211335739227962005e-01,9.233993240924711632e-01,7.366610460762634816e-02,3.765543070425947381e-01
-2.707325530684051018e-01,8.460267201066018483e-02,6.832279053700083260e-01,8.318451331581107056e-01,-4.018551097412709217e-01,-3.825678159900550712e-01
-2.805358258642239866e-01,1.357381309941411152e-01,7.074084649076871623e-01,6.131174522350347766e-01,7.881433885840803955e-01,5.400915474272228317e-02
-2.702852894856742627e-01,8.618148480852445836e-02,7.205717433809452066e-01,8.447322800421487310e-01,-4.176238815261064663e-01,3.342147123940177877e-01
-2.608937225164311702e-01,8.563878327608109853e-02,7.389337319887783195e-01,4.343492104526497366e-01,8.065098188496016007e-01,-4.006727962173339264e-01
-2.895063725605385718e-01,1.414592474326491489e-01,7.090464199362631614e-01,4.104898903849075187e-01,9.028475691236550471e-01,1.279230894689988296e-01
-2.244089941710863956e-01,5.631647571921349904e-02,7.548999084058953812e-01,3.694690452569444616e-01,3.667106800325726779e-01,8.537892175234874648e-01
-2.447136965024054034e-01,7.820752327640852208e-02,7.583546846070335912e-01,6.599015195504498443e-01,6.764295494262090314e-01,3.224695194980352064e-01
-2.741847851006470882e-01,1.302219306677580013e-01,6.939225923521181727e-01,6.765767526636949913e-01,7.249077170407844939e-01,-1.294322198286314007e-01
-2.648350690417121678e-01,9.633784495294095418e-02,7.137383573279743043e-01,9.617583675583910585e-01,-1.537191551745588636e-01,2.265983033241225353e-01
-2.877992672183665723e-01,1.370822966424748435e-01,6.833220086644904434e-01,4.876301998837173635e-01,7.990991979495556397e-01,-3.516423533488660103e-01
-2.517181954714953207e-01,8.326111674308778188e-02,7.598632333467205680e-01,5.349269584768904240e-01,7.856407742052556875e-01,3.108403496987312553e-01
-2.054860023311144146e-01,4.707447528839112799e-02,7.495749586645608087e-01,5.227939559622066801e-01,7.143879915451373241e-01,4.624576386535828587e-01
-2.606829569057860785e-01,8.883995379010838078e-02,7.583479623206854647e-01,5.103703399220288484e-01,7.770525678919102397e-01,3.677667000120457552e-01
-2.298178917721332426e-01,6.331718280911446950e-02,7.549776453901859696e-01,5.615916277028676351e-01,3.260051899961415867e-01,7.603231068050169128e-01
-2.684637777398324876e-01,9.442592911422253987e-02,7.567736413747310209e-01,5.154546902705126055e-01,7.948590027892459275e-01,3.193810601338125665e-01
-2.617111952492814364e-01,8.925948232412339589e-02,7.588308775767660386e-01,4.856111822148266866e-01,7.721369861290751091e-01,4.098612623308367509e-01
-2.875604003254657037e-01,1.028169089555740490e-01,7.801067183834400343e-01,6.699805989331837353e-01,-2.580945241387356745e-02,7.388448564629523929e-01
-2.624889120468372194e-01,9.000855438411237142e-02,7.583064829594374778e-01,4.871645979637382884e-01,7.744094949907469605e-01,4.029826410486375687e-01
-2.690353329446310005e-01,8.200083799660207173e-02,7.089813463475451716e-01,8.617118892958754994e-01,-4.833538103578456369e-01,1.542635737385935624e-01
-2.247411861653023091e-01,6.384355142712594411e-02,7.482068648943932532e-01,6.384295397934910410e-01,6.679581380457410011e-01,3.820602986429936787e-01
-2.063047345208041117e-01,5.057061403989793202e-02,7.452762041712523988e-01,5.362040672354424498e-01,8.175399407517389694e-01,2.075736108017808279e-01
-2.703926014447541326e-01,9.032002031803132436e-02,7.387021250622953783e-01,3.807781011225182533e-01,8.121567766495272345e-01,-4.420513633592584313e-01
-2.652459345902382082e-01,9.810662023723126790e-02,7.163773830451531932e-01,9.536332420893751660e-01,-1.278177955877060346e-01,2.723732978625786894e-01
-2.731134213979454217e-01,9.802136013905209111e-02,7.570398893322097811e-01,6.935254415345233348e-01,6.995008218477535289e-01,1.671526588943716973e-01
-2.641788679915487159e-01,1.147879793867468967e-01,7.029412677697814971e-01,9.685127190923383811e-01,2.478062644461209718e-01,8.707317787950743723e-03
-2.489019978162241575e-01,8.016689807176591298e-02,7.615687446159092877e-01,5.782808242859941439e-01,6.025657853885486581e-01,5.440020427094441891e-01
-2.784113537477689859e-01,1.032141217589378490e-01,7.571056210020977728e-01,6.308834332412575074e-01,7.676642957855938088e-01,-1.125949494326098366e-01
-2.926993130951302535e-01,1.093241901695728435e-01,7.517160834147498250e-01,4.416078608492560731e-01,7.912920625614876524e-01,-4.228940398768121778e-01
-2.644254055837178541e-01,1.056577184796333446e-01,6.895459759943864952e-01,9.626028362542318195e-01,5.493509856873235453e-02,-2.649684661948396025e-01
-2.837026958280927103e-01,9.961322635412217519e-02,7.384196351502422262e-01,3.824712202676402439e-01,4.429579516729924560e-01,8.108662150544004854e-01
-2.391212258084693398e-01,7.498452752828599355e-02,7.537700716677846469e-01,6.031682736706186487e-01,6.395788922561691514e-01,4.765782980975709071e-01
-2.794402259703780422e-01,1.040295431017875805e-01,7.569993308364900697e-01,6.063354088183121604e-01,7.739534635835076948e-01,-1.826291549020102045e-01
-2.489904123678047809e-01,8.274592772126199147e-02,7.448061655862031616e-01,3.909382062130614677e-01,8.614712171820870790e-01,-3.240905134213701300e-01
-2.815816233777948541e-01,1.056695425510406627e-01,7.567781083887428206e-01,5.866501277387012880e-01,7.601410748984200882e-01,-2.793334456817513356e-01
-2.743247431969940142e-01,9.685540015498798894e-02,7.476553001751212735e-01,4.964724572162205196e-01,7.556867865382631555e-01,-4.271063222959741168e-01
-2.659261314010494259e-01,1.144224622845649852e-01,6.896679760823336558e-01,9.345386566991177313e-01,2.622628961752360155e-01,-2.399121593839164956e-01
-2.154646274503533854e-01,5.633107513189317128e-02,7.470229552075262625e-01,6.749872675738576300e-01,5.057758505369629454e-01,5.371991973437688639e-01
-2.951968264152999288e-01,1.120591045916080608e-01,7.553715508934321088e-01,3.928856267979318750e-01,8.286952887728783468e-01,-3.986289033941615711e-01
-2.999203417910649705e-01,1.146479708701372280e-01,7.548835751154036044e-01,4.540587510766511681e-01,7.725111778373334737e-01,-4.439111743210423233e-01
-2.424991582505273691e-01,7.264731019735337636e-02,7.599853569229757522e-01,5.483380663209402872e-01,1.010503498280497375e-01,8.301290211907066396e-01
-2.450741601328564889e-01,7.787102401256562612e-02,7.597117723557922364e-01,6.672192418951760073e-01,6.035762329825030692e-01,4.364793399732429524e-01
-2.728086694763072195e-01,7.870399892330171010e-02,6.863063511799447625e-01,7.873989099016058812e-01,-5.310795505287797535e-01,-3.126296918970412619e-01
-2.456991266224283765e-01,7.897715024650098226e-02,7.588053907980514268e-01,6.247799059251686327e-01,7.160779479352532562e-01,3.088170819480572371e-01
-2.133038485323598965e-01,5.425376385450364491e-02,7.224517464789400600e-01,6.662945274600275969e-01,5.243754986359879799e-01,-5.301716128831091002e-01
-2.612125155129834120e-01,8.648696295917035481e-02,7.406650101052729696e-01,4.025258277477766766e-01,8.426406567449485907e-01,-3.574950176236340038e-01
-2.891647058949229909e-01,1.414581640134565665e-01,7.076516939631143366e-01,4.280335004226736850e-01,8.990233255387850564e-01,9.155218827193088715e-02
-2.513272195218521632e-01,8.332061894237996480e-02,7.586193220642798440e-01,5.771085894920638948e-01,7.824988476955003769e-01,2.334031121539572040e-01
-2.731299520219272470e-01,9.361012406647206685e-02,7.433460653158514564e-01,5.074747038210991601e-01,8.014856573675738227e-01,-3.162083268740693009e-01
-2.683088976921917390e-01,8.286307319998742482e-02,6.938579054593958517e-01,8.938260129489506989e-01,-4.278731932793433668e-01,-1.341625471162502803e-01
-2.531588203760263278e-01,8.467964023351670644e-02,7.584220583203630239e-01,5.011400853544937251e-01,8.211700729745918803e-01,2.718644356234292125e-01
-2.726716167005315272e-01,1.296734412759542598e-01,7.044291047944032380e-01,7.152269627353101678e-01,6.975164157092859085e-01,3.804952461774295525e-02
-2.676508476627451061e-01,9.365045964717866323e-02,7.573130697126623234e-01,4.952206491975468805e-01,7.960406253051266479e-01,3.479595256235747391e-01
-2.384150225665145895e-01,7.540020038684210058e-02,7.524931501537456269e-01,5.658206118233558568e-01,6.459453747146771674e-01,5.120507986264967171e-01
-2.737527444461477777e-01,1.100243342667818203e-01,7.334946927915909631e-01,7.610252800143439966e-01,1.268237489025177411e-01,6.362045739331024796e-01
-2.624929151640106872e-01,8.451367606719335790e-02,7.673268486078276274e-01,4.758940798840471942e-01,4.807299315785093508e-01,7.352299703296351074e-01
-2.820447821566275381e-01,1.056134098768234386e-01,7.557837608950978003e-01,5.538604404834029937e-01,7.561552627169584317e-01,-3.485223538497616569e-01
-2.383446896974936446e-01,7.825302645564080617e-02,7.419358747243112173e-01,3.783971609500205169e-01,9.195088757241205446e-01,-1.023846878929446091e-01
-2.882537389664417415e-01,1.087914848327636852e-01,7.551240782180592692e-01,4.376749800015151681e-01,7.743611074983997034e-01,-4.569523903805792209e-01
-2.710411685633637990e-01,9.580060034990312001e-02,7.496268643191723591e-01,5.060696754898783567e-01,7.858762200434931122e-01,-3.553759281658230851e-01
-2.940744673072374082e-01,1.111699634790420665e-01,7.545056438366463114e-01,3.611210222873010300e-01,8.506921968072519435e-01,-3.819874259101025404e-01
-2.715773833349089950e-01,7.684482574462891957e-02,7.026987232691047636e-01,7.998565299126145778e-01,-5.993500183848805563e-01,3.082103372505417410e-02
-2.921690909344549780e-01,1.278108669072389736e-01,7.370705695364988541e-01,2.452757550735620573e-01,5.039218075671992869e-01,8.281923785155842488e-01
-2.426533930201337785e-01,7.562593311071397206e-02,7.588608674970501733e-01,6.883579077323550566e-01,5.455492983899680182e-01,4.719893686748734551e-01
-2.754458080525986619e-01,1.301729989796877041e-01,6.887726065531500907e-01,6.807217193903165597e-01,6.971514977139188218e-01,-2.249393918048392116e-01
-2.435784443063875870e-01,7.972712010145188710e-02,7.506814551708267391e-01,5.208280062309740277e-01,8.093578874841447224e-01,2.714369132831254694e-01
-2.658165236745542170e-01,8.892191886901856801e-02,7.089073761489999015e-01,9.310879458208267678e-01,-3.398388823708168305e-01,1.321678017071280797e-01
-2.361045353862066265e-01,7.084688484668733022e-02,7.549756500215023536e-01,6.241438989826599837e-01,5.579605936866538496e-01,5.469226355304374065e-01
-2.473242071895462302e-01,8.030572660267354390e-02,7.582055420471356388e-01,5.881716116685771212e-01,7.817817387782353133e-01,2.061010798116278686e-01
-2.724793826581111134e-01,1.234269806742668285e-01,7.225671771541082311e-01,7.676673580572912492e-01,5.183311537090833365e-01,3.765155001724893591e-01
-2.165736958504991816e-01,6.166029661893845937e-02,7.300349919882445082e-01,5.551112770220175685e-01,8.214370190626211210e-01,-1.307390295072586861e-01
-2.540229463514480091e-01,8.537146016955377004e-02,7.578965387720448810e-01,4.658573849136663503e-01,8.409242274425664521e-01,2.753603831736199381e-01
